-0.006019 -0.001636 0.024138 0.999498 0.029881 -0.010519 
0.022305 0.019499 0.011839 -0.084335 0.025371 -0.996114 
-0.014839 -0.019298 0.025291 0.999852 -0.002451 -0.017016 
0.022387 0.033668 0.011822 0.022768 -0.057219 -0.998102 
0.022625 0.035857 0.012646 -0.026133 -0.080536 -0.996409 
0.022702 0.032182 0.014986 -0.095104 -0.007415 -0.995440 
0.022424 0.032461 0.012602 -0.034194 -0.033318 -0.998860 
0.022656 0.035261 0.013860 -0.093771 -0.098942 -0.990665 
0.022237 0.023982 0.010343 0.012863 0.002005 -0.999915 
-0.005756 0.002732 0.024027 0.998534 0.008629 -0.053443 
0.022439 0.010426 0.008644 -0.044827 0.036247 -0.998337 
0.022858 -0.002303 0.010612 -0.096593 0.029850 -0.994876 
0.022665 0.001881 0.009733 -0.082047 0.019031 -0.996447 
0.022441 -0.000246 0.006455 -0.041520 0.022632 -0.998881 
0.022461 -0.002039 0.005913 0.002776 0.047411 -0.998872 
0.022381 0.002643 0.006413 -0.047170 0.036050 -0.998236 
0.022393 0.000139 0.005111 0.036947 0.039217 -0.998547 
0.022574 -0.001847 0.007417 -0.042556 0.028691 -0.998682 
0.022254 0.009684 0.004367 0.162724 -0.007920 -0.986640 
0.022299 0.008197 0.004581 0.109362 0.029488 -0.993564 
0.022584 0.018150 0.003458 0.199689 -0.007799 -0.979828 
0.022678 0.007787 0.002359 0.094436 -0.000932 -0.995530 
0.022615 0.006382 0.002977 0.162341 0.000834 -0.986734 
0.022703 0.011729 0.001315 0.023580 -0.007304 -0.999695 
0.022722 0.008058 0.001218 0.027264 -0.010118 -0.999577 
0.022778 0.000416 0.000837 0.022847 0.034351 -0.999149 
0.022811 -0.001046 0.002243 0.104526 0.007751 -0.994492 
0.022379 0.001173 0.004398 0.128005 0.020376 -0.991564 
0.022647 0.013150 0.001013 0.010358 0.008299 -0.999912 
0.022290 0.010633 0.005149 0.023997 -0.006920 -0.999688 
-0.013565 0.017308 0.025144 0.996718 -0.001841 -0.080935 
0.022282 0.016729 0.009705 -0.018282 0.021932 -0.999592 
0.022233 0.020306 0.006112 -0.001240 0.016023 -0.999871 
0.022491 0.016920 0.003775 0.204504 0.002229 -0.978863 
0.022257 0.011819 0.007941 0.004047 0.014683 -0.999884 
0.022243 0.018818 0.004680 0.120240 -0.005327 -0.992731 
0.022249 0.020326 0.004380 0.185365 -0.006956 -0.982645 
0.022552 0.022729 0.003515 0.247714 -0.009190 -0.968790 
-0.010576 0.014931 0.024820 0.987295 -0.007402 -0.158724 
0.022993 0.032033 0.002874 0.102841 -0.022840 -0.994436 
0.022331 0.011132 0.008494 -0.058188 0.070194 -0.995835 
0.022578 0.034097 0.005419 0.047198 -0.058927 -0.997146 
0.022529 0.032755 0.005175 0.155001 -0.017526 -0.987759 
0.022464 0.032314 0.006224 0.023944 -0.043334 -0.998774 
0.022359 0.026661 0.006095 0.015312 -0.010030 -0.999832 
0.022380 0.029748 0.007332 0.018566 -0.018271 -0.999661 
0.022453 0.022171 0.003973 0.280747 0.032143 -0.959243 
0.022409 0.011099 0.003861 0.183284 -0.000033 -0.983060 
0.022233 0.021324 0.006971 0.008723 -0.031608 -0.999462 
-0.004714 0.006107 0.023965 0.997263 0.000559 -0.073933 
0.022697 0.037913 0.007615 0.037368 -0.061865 -0.997385 
0.022231 0.023271 0.006155 0.006286 0.001865 -0.999979 
0.022709 0.006791 -0.000089 0.062735 0.002546 -0.998027 
0.022710 0.008916 0.000484 0.032343 0.019523 -0.999286 
0.022717 0.009188 0.001977 0.060704 0.024131 -0.997864 
-0.008541 0.010825 0.024488 0.993244 0.024387 -0.113451 
0.022516 0.007604 0.003531 0.190273 -0.001799 -0.981730 
0.022887 -0.001983 0.000733 0.045200 0.032213 -0.998458 
0.023023 -0.016895 0.005661 -0.021196 0.012259 -0.999700 
-0.005085 0.004284 0.023997 0.998603 0.007520 -0.052300 
0.022587 -0.002914 0.003999 0.120589 0.035955 -0.992051 
0.022583 -0.005490 0.004495 0.119173 0.021538 -0.992640 
0.022309 0.022410 0.007402 0.009751 0.011361 -0.999888 
0.007079 0.060733 0.004080 0.025687 0.900939 0.433184 
0.022277 0.028458 0.010703 -0.009875 -0.026603 -0.999597 
0.022284 0.020860 0.008045 0.017932 0.003872 -0.999832 
0.022382 0.022292 0.013463 -0.075775 0.043409 -0.996180 
0.022310 0.012050 0.008876 -0.076318 0.012735 -0.997002 
0.022296 0.014055 0.008984 -0.012295 0.019790 -0.999729 
0.022227 0.027233 0.009664 0.031616 0.002751 -0.999496 
0.022266 0.019488 0.009376 0.045769 0.013055 -0.998867 
0.022301 0.028036 0.006418 0.011908 -0.024596 -0.999627 
0.007418 -0.014441 -0.023667 -0.988709 -0.013980 0.149195 
0.022485 0.032146 0.007325 0.031438 -0.027445 -0.999129 
-0.006096 0.010230 0.024063 0.987251 -0.001246 -0.159168 
0.023084 -0.002267 0.012382 -0.111512 0.008493 -0.993727 
-0.005782 0.008881 0.023992 0.993916 0.015189 -0.109088 
-0.007965 0.008989 0.024354 0.988961 -0.048709 -0.139942 
0.022254 0.025918 0.010538 0.004560 -0.015921 -0.999863 
0.022263 0.020374 0.011955 -0.077754 0.025805 -0.996639 
0.022279 0.023313 0.011782 -0.028928 0.006794 -0.999558 
0.006635 0.060537 0.004972 0.043568 0.932751 0.357879 
0.005821 0.060298 0.008612 -0.032053 0.963826 -0.264599 
0.001934 0.060261 0.010217 0.075832 0.979257 0.187896 
0.007626 0.061145 0.005473 -0.021281 0.796221 0.604631 
0.000435 0.059942 0.012169 -0.052928 0.974863 0.216426 
-0.000484 0.059823 0.011684 0.465661 0.871057 -0.156267 
-0.009037 0.013052 0.024631 0.973064 -0.095423 -0.209860 
0.002574 0.060505 0.009270 0.134487 0.970363 0.200772 
0.001905 0.060361 0.009514 0.352657 0.927295 -0.125525 
-0.009081 0.014181 0.024684 0.991735 0.022554 -0.126308 
0.000581 0.060690 0.010200 0.717036 0.354656 -0.600065 
0.005951 0.060349 0.010094 -0.023408 0.987759 -0.154223 
-0.008257 0.020878 0.024340 0.987780 0.036002 -0.151641 
0.007543 0.061029 0.003982 0.024442 0.776041 0.630208 
0.006767 0.060558 0.014027 -0.084247 0.892152 0.443810 
0.006683 0.060438 0.012864 -0.018132 0.936751 0.349527 
0.001009 0.060205 0.010190 0.469278 0.830864 -0.299069 
0.000749 0.059973 0.011084 0.180864 0.983205 0.024400 
0.006196 0.060298 0.011615 -0.005025 0.999016 0.044068 
-0.000145 0.060407 0.010927 0.683291 0.494591 -0.537116 
-0.003876 0.058899 0.013838 0.513785 0.857919 0.000803 
-0.002103 0.060284 0.012347 0.858679 0.277794 -0.430698 
-0.002193 0.059631 0.012592 0.731476 0.633071 -0.253308 
-0.011438 0.018816 0.024935 0.977718 -0.008431 -0.209754 
-0.012372 0.018836 0.025103 0.996270 -0.004927 -0.086155 
-0.003165 0.059347 0.013204 0.795230 0.548906 -0.257509 
-0.000710 0.059693 0.012507 0.059788 0.982566 0.176039 
-0.004395 0.058987 0.013827 0.758440 0.621638 -0.195795 
-0.002612 0.059254 0.013159 0.512480 0.858698 0.001484 
-0.013410 0.055745 0.014000 0.520984 0.733744 0.436114 
-0.004769 0.059589 0.013732 0.895905 0.307470 -0.320649 
-0.011550 0.012069 0.024935 0.980542 -0.076281 -0.180884 
-0.006581 0.058052 0.014734 0.679042 0.724115 0.120658 
-0.008344 0.059278 0.014479 0.991591 0.126801 0.025858 
-0.005663 0.059222 0.014170 0.931781 0.263462 -0.249745 
-0.004408 0.058623 0.014461 0.194279 0.963288 0.185290 
-0.014921 0.012715 0.025317 0.998227 0.023899 -0.054522 
-0.012112 0.057125 0.014223 0.949441 0.052068 0.309599 
-0.008993 0.057803 0.014687 0.927337 0.335517 0.165755 
-0.009578 0.058417 0.014515 0.986330 0.133364 0.096783 
-0.010171 0.014327 0.024716 0.994736 0.041755 -0.093572 
-0.011852 0.020833 0.024880 0.988409 0.114959 -0.099156 
-0.009283 0.019934 0.024620 0.992035 0.017587 -0.124730 
-0.010321 0.060284 0.014512 0.969841 -0.232995 -0.071561 
-0.006801 0.012947 0.024189 0.991227 -0.010933 -0.131714 
-0.009370 0.057079 0.014952 0.560088 0.784200 0.267081 
-0.010600 0.056798 0.014647 0.733253 0.557831 0.388799 
-0.008594 0.058444 0.014606 0.980713 0.172356 0.092169 
-0.013067 0.020963 0.024984 0.994897 0.077962 -0.064051 
-0.004787 0.060540 0.013455 0.891100 0.179327 -0.416872 
-0.010993 0.056912 0.014556 0.914558 0.331911 0.231125 
-0.013706 0.056536 0.013661 0.896256 0.090097 0.434290 
-0.010612 0.018806 0.024656 0.980567 -0.014474 -0.195649 
-0.011040 0.056514 0.014873 0.315494 0.912238 0.261313 
-0.016956 0.055213 0.011220 0.603550 0.215161 0.767745 
-0.001483 0.059764 0.012228 0.660969 0.711214 -0.239363 
-0.002955 0.059847 0.012915 0.857501 0.371701 -0.355710 
-0.009297 0.020945 0.024507 0.986428 0.023469 -0.162506 
-0.010147 0.019497 0.024692 0.989956 -0.054992 -0.130246 
-0.008267 0.060463 0.014413 0.997105 -0.053953 -0.053586 
-0.010419 0.020809 0.024721 0.990980 0.048639 -0.124872 
-0.009288 0.060026 0.014372 0.998967 -0.045058 -0.005971 
-0.010006 0.059342 0.014417 0.999260 0.014837 0.035486 
-0.007024 0.060168 0.014310 0.985473 0.079586 -0.150031 
0.003077 0.060729 0.008415 0.159092 0.978056 0.134520 
0.006071 0.060207 0.007592 0.008840 0.999675 0.023919 
0.006286 0.060621 0.002336 -0.016501 0.975853 0.217804 
0.005503 0.060554 0.000121 0.028891 0.989912 -0.138703 
0.022417 0.032391 0.008966 0.037770 -0.017646 -0.999131 
0.022698 0.037155 0.012524 -0.063353 -0.012743 -0.997910 
0.022331 0.029565 0.009685 0.051503 -0.053348 -0.997247 
0.022402 0.029302 0.008566 0.044598 -0.038403 -0.998267 
0.009295 -0.004423 -0.023657 -0.971853 0.131448 0.195510 
0.022378 0.031158 0.010804 0.038866 -0.035662 -0.998608 
0.022341 0.030150 0.013734 -0.067787 -0.052743 -0.996305 
0.022846 0.036523 0.013955 -0.105330 -0.054235 -0.992957 
0.022418 0.028805 0.014703 -0.070946 -0.029043 -0.997057 
0.022723 0.038016 0.012450 -0.099948 -0.058005 -0.993300 
0.022579 0.035110 0.011292 0.025643 -0.086468 -0.995925 
0.022646 0.036233 0.009839 0.034495 -0.027037 -0.999039 
0.000270 0.060034 0.019372 0.564216 0.809931 0.160225 
0.000947 0.058547 0.021087 0.406449 0.869816 0.279679 
0.005908 0.060661 0.019429 0.083338 0.946736 0.311040 
0.003279 0.060299 0.019377 0.557591 0.826770 0.074454 
0.003892 0.059818 0.020370 0.309991 0.906020 0.288155 
0.002591 0.059230 0.020769 0.382273 0.873538 0.301328 
0.004688 0.060266 0.019700 0.303642 0.926892 0.220619 
-0.000281 0.058337 0.020651 0.577552 0.781884 0.234715 
-0.002682 0.058410 0.020182 0.825871 0.542106 0.155109 
-0.000910 0.059417 0.019730 0.729778 0.666584 0.151954 
-0.001345 0.057840 0.021005 0.460802 0.848674 0.259642 
-0.001928 0.058960 0.019928 0.774693 0.611428 0.161265 
-0.007839 0.017894 0.024364 0.988547 -0.004256 -0.150851 
-0.001934 0.058203 0.020366 0.763747 0.604431 0.226616 
0.001458 0.059120 0.020300 0.622635 0.759102 0.189973 
0.000246 0.059078 0.020119 0.730385 0.663946 0.160351 
0.002201 0.059587 0.020041 0.644392 0.746788 0.164519 
-0.003606 0.057768 0.020396 0.821782 0.540837 0.179360 
0.014431 -0.026056 -0.024814 -0.987362 0.052663 0.149477 
-0.007473 0.023711 0.024185 0.978751 0.000398 -0.205053 
-0.002692 0.057591 0.020720 0.552527 0.792024 0.259637 
-0.003872 0.057226 0.020757 0.551178 0.804435 0.221556 
0.003089 0.059836 0.019964 0.545867 0.820424 0.170099 
0.001329 0.059822 0.019762 0.728298 0.677436 0.103257 
0.005174 0.060285 0.020521 0.138441 0.914391 0.380424 
0.002403 0.060020 0.019624 0.648503 0.756034 0.088634 
-0.002935 0.058982 0.019704 0.641290 0.734142 0.223119 
-0.004165 0.058061 0.020151 0.815002 0.550716 0.180229 
-0.009318 0.056363 0.020436 0.890301 0.441814 0.110294 
-0.005869 0.058165 0.014918 0.340272 0.889323 0.305481 
-0.007058 0.057705 0.019819 0.493482 0.836242 0.239114 
-0.008811 0.029210 0.023901 0.983200 0.152882 0.099720 
-0.011907 0.058267 0.014251 0.963309 0.024228 0.267300 
0.022803 -0.011356 -0.023809 -0.673724 -0.000365 -0.738983 
-0.007242 0.057712 0.015068 0.436356 0.861297 0.260309 
-0.006373 0.057956 0.015227 0.092542 0.944896 0.314019 
-0.012721 0.057849 0.014009 0.932338 0.044097 0.358889 
-0.009395 0.055495 0.021044 0.397119 0.879180 0.263325 
-0.009492 0.018183 0.024524 0.993985 0.011340 -0.108923 
-0.009250 0.056904 0.020098 0.642199 0.739864 0.200454 
-0.007920 0.056965 0.020301 0.819281 0.558975 0.127769 
0.005690 0.028454 0.022911 0.998302 0.056702 0.013327 
0.006360 0.030294 0.022892 0.997852 -0.060543 -0.025003 
-0.007704 0.056257 0.020670 0.712225 0.658759 0.242432 
-0.006458 0.057340 0.020195 0.823990 0.552820 0.124220 
-0.007360 0.022199 0.024137 0.989089 0.082259 -0.122218 
-0.006866 0.056213 0.021052 0.415399 0.876327 0.243915 
0.008591 0.010951 0.023781 0.983471 0.052003 0.173439 
-0.004643 0.057307 0.020489 0.731476 0.655322 0.188402 
-0.005350 0.057533 0.020220 0.823676 0.543583 0.161480 
-0.008476 0.057323 0.019788 0.403647 0.883857 0.236358 
-0.005875 0.056751 0.020663 0.651776 0.726943 0.216199 
-0.010154 0.055561 0.020687 0.801019 0.586299 0.120919 
-0.008251 0.056439 0.020496 0.911300 0.393634 0.120765 
-0.012733 0.064168 0.014892 0.978785 0.008839 0.204701 
-0.010274 0.056697 0.015086 0.279685 0.886424 0.368820 
-0.008242 0.057292 0.015159 0.445416 0.861900 0.242348 
-0.005219 0.058135 0.019825 0.660230 0.716718 0.224525 
-0.004211 0.012802 0.023844 0.995175 -0.017378 -0.096563 
-0.006944 0.056705 0.020504 0.801208 0.580408 0.145577 
-0.012969 0.059837 0.014163 0.904252 -0.359127 0.230990 
-0.012558 0.060590 0.014590 0.938400 -0.262533 0.224683 
-0.009968 0.056973 0.019507 0.198564 0.947551 0.250438 
-0.013460 0.054242 0.021229 0.629630 0.754169 0.186538 
-0.008471 0.056117 0.020602 0.829409 0.538599 0.148293 
-0.010392 0.055051 0.021244 0.407316 0.872029 0.271401 
-0.006666 0.017694 0.024151 0.994073 0.000546 -0.108715 
-0.009102 0.055803 0.020698 0.772645 0.612532 0.166805 
-0.008141 0.019296 0.024484 0.986363 0.016520 -0.163752 
-0.007811 0.055903 0.021331 0.290133 0.917822 0.270971 
-0.005203 0.014856 0.024007 0.987190 0.009216 -0.159282 
-0.008479 0.055770 0.020978 0.389334 0.873216 0.293108 
-0.023183 -0.001807 0.004721 -0.107736 0.026147 0.993836 
-0.007190 0.016362 0.024204 0.988612 0.006124 -0.150364 
-0.002397 0.032020 0.022978 0.993421 0.108464 -0.036755 
-0.019096 0.053857 0.010929 -0.053495 0.941895 0.331622 
-0.015438 0.055036 0.014019 -0.082511 0.969772 0.229642 
0.000798 0.026373 0.022802 0.999422 -0.005103 -0.033619 
0.003881 0.014303 0.023137 0.994115 -0.037184 0.101748 
0.000948 0.018570 0.023233 0.999521 0.030882 -0.001996 
-0.006890 0.018959 0.024149 0.989180 0.032363 -0.143092 
-0.000806 0.028408 0.023118 0.998584 0.034050 -0.040876 
-0.003417 0.016994 0.023632 0.988459 0.035256 -0.147332 
0.010036 0.012392 0.023854 0.991056 0.039341 0.127516 
0.010202 -0.005100 0.024392 0.989854 -0.010657 0.141690 
0.007745 0.004459 0.023868 0.981314 0.058921 0.183169 
0.023152 0.029127 0.022328 -0.048174 -0.154888 -0.986757 
-0.004889 0.017372 0.023879 0.983376 0.024550 -0.179912 
0.007684 0.030337 0.022891 0.994225 -0.086682 0.063273 
-0.005882 0.019963 0.024015 0.992433 0.051575 -0.111435 
-0.004116 0.017402 0.023795 0.985938 0.053037 -0.158471 
0.007849 0.032877 0.022861 0.998526 -0.044095 0.031645 
0.008210 0.032123 0.022819 0.999529 0.003989 0.030429 
-0.005140 0.013175 0.024013 0.991417 -0.031382 -0.126914 
-0.007927 0.014427 0.024391 0.981135 -0.007245 -0.193189 
0.001261 0.031668 0.022841 0.996961 0.077819 0.003655 
0.004219 0.008901 0.023349 0.997785 0.066509 -0.001488 
0.009761 -0.028142 -0.024082 -0.986587 -0.054224 0.153966 
0.002572 -0.046157 -0.023971 -0.994617 0.094612 -0.042247 
0.022491 0.031732 0.013961 -0.110300 -0.048415 -0.992718 
0.023173 0.026759 0.021976 -0.100450 0.181218 -0.978299 
0.023738 -0.003186 0.020312 -0.002439 -0.007469 -0.999969 
0.003905 0.006844 0.023374 0.995465 0.092443 -0.022453 
0.004796 0.011567 0.023141 0.997160 0.044075 0.061070 
0.003938 0.016939 0.023127 0.996151 0.087167 0.009233 
0.005569 0.017877 0.023081 0.997598 0.068065 0.012897 
0.002925 0.000417 0.023578 0.998096 0.061532 0.004231 
0.004126 0.008174 0.023369 0.999994 -0.002735 -0.002130 
-0.003586 0.021148 0.023545 0.992433 0.047082 -0.113404 
-0.005528 0.023306 0.023801 0.979025 0.101852 -0.176456 
0.005102 0.002850 0.023608 0.996111 0.073223 0.049010 
0.003192 0.007372 0.023398 0.999479 0.031967 -0.004540 
0.007830 -0.032846 -0.023788 -0.994154 -0.006449 0.107779 
0.004946 0.009500 0.023288 0.998441 0.039142 0.039807 
0.001538 0.008065 0.023382 0.998657 0.043622 -0.027957 
0.002284 0.010734 0.023301 0.999442 -0.005093 0.033003 
0.002871 0.012572 0.023211 0.995563 0.067812 -0.065231 
0.004215 0.010624 0.023247 0.997711 0.067616 -0.000452 
0.004220 0.018400 0.022968 0.997352 0.057640 0.044341 
0.004099 0.004733 0.023537 0.999706 0.022600 -0.008818 
0.001964 0.009719 0.023310 0.999364 0.035531 0.003195 
0.002983 0.011240 0.023332 0.998461 0.044859 -0.032604 
0.002888 0.014383 0.023017 0.999983 -0.000762 -0.005776 
0.001974 0.013647 0.023265 0.993426 0.052725 -0.101607 
0.004820 0.016524 0.023218 0.999156 0.040896 0.003815 
-0.005632 0.025882 0.023767 0.992229 0.059744 -0.109141 
0.003637 0.015761 0.023180 0.999001 -0.022688 0.038510 
0.003987 0.013085 0.023111 0.998817 0.009739 0.047638 
0.004846 0.014686 0.023197 0.999846 -0.007101 0.016026 
0.003796 0.019264 0.022958 0.999677 0.013254 -0.021690 
-0.006541 0.023629 0.023918 0.978698 0.063206 -0.195332 
0.002876 0.018805 0.023101 0.985763 0.077239 -0.149351 
-0.007040 0.022642 0.024124 0.990672 0.052845 -0.125603 
0.003654 0.018030 0.023010 0.992340 0.082677 -0.091793 
-0.007848 0.025009 0.024313 0.988967 0.012372 -0.147616 
0.002982 0.017288 0.023186 0.997680 0.022883 -0.064111 
0.005061 0.003791 0.023493 0.996310 0.046958 0.071844 
0.003396 0.009925 0.023263 0.999511 0.031218 -0.001525 
0.003719 0.011699 0.023147 0.995238 0.071407 -0.066352 
0.001596 0.011981 0.023272 0.999996 -0.002653 0.001405 
0.002121 0.014514 0.023105 0.989645 0.037515 -0.138549 
0.000718 0.013508 0.023350 0.999746 0.019521 -0.011246 
0.004479 0.007353 0.023327 0.999394 0.024341 0.024896 
0.001483 0.030046 0.022920 0.995197 -0.078247 0.058818 
0.000708 0.004084 0.023648 0.998105 0.028312 -0.054639 
0.003037 0.008753 0.023383 0.998745 0.048042 0.014144 
0.005928 0.010497 0.023323 0.990629 0.043807 0.129362 
0.003198 0.029894 0.022851 0.999296 0.000478 -0.037518 
0.004496 0.006556 0.023423 0.996638 0.081330 0.009937 
0.004291 0.003610 0.023496 0.999016 0.043609 -0.008078 
0.004488 0.000109 0.023677 0.996141 0.069769 0.053241 
0.004909 0.001545 0.023699 0.999005 0.039990 0.019744 
0.003467 0.024844 0.022869 0.999436 0.024841 0.022608 
0.023409 -0.037613 -0.022596 -0.258666 -0.008648 -0.965928 
0.001665 0.002745 0.023580 0.999345 0.033493 -0.013704 
0.013296 -0.017761 -0.024660 -0.991845 -0.038052 0.121638 
0.000876 0.006534 0.023478 0.995202 0.028988 -0.093450 
0.001952 0.006390 0.023400 0.999283 0.036262 0.010852 
0.000879 0.010207 0.023374 0.998194 0.034599 -0.049117 
0.001918 0.004606 0.023483 0.998809 0.048776 -0.001172 
0.001477 0.010772 0.023260 0.999209 0.039690 0.002592 
-0.000095 0.002518 0.023680 0.999839 0.017664 -0.002981 
0.001016 -0.000236 0.023803 0.996734 0.080445 -0.007010 
0.000952 0.001339 0.023683 0.998535 0.051574 -0.016399 
-0.000328 0.000972 0.023689 0.999625 0.026643 0.006275 
0.023879 -0.033932 -0.018623 -0.039735 -0.007733 -0.999180 
-0.000643 0.000016 0.023704 0.995486 0.094707 -0.006129 
0.000939 0.009274 0.023308 0.998660 0.035601 -0.037550 
-0.000166 0.009604 0.023404 0.997485 0.022107 -0.067349 
0.002816 0.025491 0.022852 0.999174 0.003845 -0.040463 
-0.000187 0.007348 0.023601 0.999173 0.028358 -0.029143 
0.000760 0.016732 0.023274 0.999959 0.008881 -0.001997 
0.015293 -0.027966 -0.024986 -0.992646 -0.029182 0.117484 
0.002926 0.021718 0.023059 0.999705 -0.023954 0.004130 
0.001715 0.018921 0.023200 0.998691 0.033827 0.038363 
-0.001714 0.009552 0.023516 0.997456 -0.012887 -0.070114 
-0.002448 0.014771 0.023636 0.999284 -0.000410 -0.037820 
-0.000115 0.012333 0.023348 0.997411 0.030880 -0.064942 
0.001473 0.021648 0.023014 0.999302 0.035460 -0.011731 
0.000545 0.011102 0.023267 0.996030 0.031051 -0.083428 
-0.001375 0.014342 0.023446 0.988141 0.004543 -0.153483 
-0.000964 0.005581 0.023596 0.999669 0.021866 0.013588 
-0.001852 0.001906 0.023725 0.998724 0.027290 -0.042491 
-0.000432 0.004167 0.023653 0.999553 0.020592 0.021674 
0.000943 0.023364 0.022990 0.998656 -0.036946 -0.036344 
-0.001719 0.004276 0.023646 0.998373 0.022981 -0.052176 
0.002126 0.019278 0.023219 0.993539 0.098321 -0.056690 
-0.001734 0.008357 0.023553 0.998518 0.032303 -0.043801 
-0.003063 0.005828 0.023764 0.994609 0.026339 -0.100295 
-0.001280 0.012877 0.023486 0.989063 0.017808 -0.146412 
0.002657 0.019893 0.023053 0.992987 0.089462 -0.077291 
0.006597 0.022247 0.022858 0.997673 0.042490 0.053323 
0.002368 0.020859 0.022988 0.999790 0.006844 -0.019307 
-0.000435 0.008585 0.023539 0.997072 0.069705 -0.031453 
-0.001018 0.010853 0.023565 0.997017 0.022898 -0.073704 
0.006132 0.021131 0.022941 0.998670 0.035608 0.037301 
0.023990 -0.029033 -0.017979 -0.054272 -0.010630 -0.998470 
-0.001914 0.005471 0.023644 0.996121 0.033812 -0.081235 
0.009054 -0.030979 -0.024006 -0.994529 -0.016206 0.103196 
0.001863 0.025467 0.022947 0.996854 0.078687 -0.009515 
0.003680 0.020620 0.022928 0.999918 -0.002013 -0.012634 
-0.002986 0.010581 0.023680 0.997305 0.027309 -0.068096 
0.008216 0.024391 0.023033 0.987867 0.035308 0.151236 
-0.001659 -0.000398 0.023872 0.993456 0.113519 -0.012611 
-0.002068 0.000482 0.023783 0.999041 0.032441 -0.029396 
0.004334 0.022692 0.022766 0.993477 0.077312 -0.083821 
0.002932 0.023188 0.022975 0.997738 0.064732 -0.018130 
-0.002896 0.003207 0.023805 0.995672 0.018762 -0.091019 
0.002358 0.023694 0.022984 0.999055 0.002597 -0.043391 
0.002196 0.026489 0.022941 0.999518 -0.029853 0.008477 
0.003335 0.022595 0.023023 0.994490 0.070028 -0.078005 
0.001233 0.022508 0.022958 0.999558 0.023994 -0.017559 
-0.002359 -0.001361 0.023965 0.997492 0.068773 -0.016750 
-0.003242 0.007482 0.023754 0.992726 0.021073 -0.118533 
-0.002915 -0.000426 0.023822 0.994302 0.105844 -0.012683 
0.022419 -0.040688 -0.024420 -0.720065 0.015003 -0.693744 
-0.004619 0.000684 0.023920 0.996737 -0.014021 -0.079496 
0.001561 0.024477 0.023094 0.999286 0.029162 -0.024010 
0.002642 0.024599 0.022917 0.994891 0.053230 -0.085784 
0.023905 -0.044169 -0.018552 -0.048763 0.019665 -0.998617 
-0.000967 0.009072 0.023529 0.997155 0.072292 -0.021356 
0.003607 0.023725 0.022873 0.998539 0.015820 -0.051672 
-0.003771 0.004556 0.023852 0.996416 0.014632 -0.083311 
-0.005795 0.005045 0.024004 0.998172 0.005393 -0.060191 
0.002192 0.022659 0.022990 0.999128 0.026340 0.032403 
-0.001348 0.003168 0.023636 0.999288 0.029260 -0.023809 
-0.004279 0.002053 0.024000 0.998118 -0.003982 -0.061187 
-0.006190 -0.004619 0.024162 0.998406 0.019466 -0.052968 
-0.006128 0.003988 0.024052 0.996532 0.008644 -0.082761 
-0.004531 -0.000642 0.023973 0.994972 0.073297 -0.068253 
-0.008725 -0.000196 0.024127 0.996892 -0.018566 -0.076561 
-0.007337 -0.000547 0.024096 0.999840 -0.004661 0.017246 
-0.005658 0.001290 0.024035 0.998228 0.004507 -0.059333 
-0.005189 -0.003287 0.024154 0.999445 -0.007555 -0.032459 
-0.004395 0.003268 0.023956 0.997584 0.026689 -0.064133 
0.013794 -0.031230 -0.024695 -0.990308 0.015980 0.137965 
-0.004738 0.007959 0.023986 0.995490 0.031389 -0.089523 
-0.001795 0.006709 0.023575 0.998787 0.013837 -0.047260 
0.005166 0.030151 0.022940 0.998605 -0.049835 0.017468 
-0.004552 0.010698 0.023823 0.993349 0.040656 -0.107721 
-0.003121 0.013866 0.023635 0.998033 0.057446 -0.025113 
0.000928 0.025239 0.022941 0.990672 0.134920 -0.019098 
-0.004232 0.015917 0.023790 0.986929 0.001266 -0.161149 
-0.003000 0.019530 0.023602 0.995577 0.015924 -0.092596 
-0.000157 0.016586 0.023254 0.998597 0.007947 -0.052357 
-0.009445 0.016788 0.024620 0.990112 0.043568 -0.133340 
-0.005454 0.018490 0.024044 0.987269 0.011764 -0.158626 
0.004108 0.030553 0.022879 0.996700 -0.012152 0.080259 
-0.006348 0.014652 0.024126 0.993942 0.009847 -0.109466 
0.001160 0.027491 0.022966 0.998329 -0.053126 0.022758 
-0.007836 0.022303 0.024264 0.987303 0.022936 -0.157185 
0.000700 0.028479 0.022942 0.995120 0.091483 -0.036980 
0.000157 0.029299 0.022862 0.993677 0.058631 -0.095747 
0.000291 0.024551 0.023067 0.996455 0.038450 -0.074823 
-0.007100 0.020235 0.024104 0.987041 0.018030 -0.159450 
-0.003866 0.009272 0.023761 0.994122 0.026365 -0.105006 
-0.005706 0.011707 0.023933 0.987122 -0.016261 -0.159139 
0.001965 0.030748 0.022993 0.997990 0.057768 -0.026041 
-0.005672 0.016498 0.024047 0.992379 0.002213 -0.123207 
-0.000177 0.028774 0.023001 0.989750 0.085705 -0.114238 
0.001922 0.027986 0.022971 0.999477 0.031993 -0.004659 
-0.001243 0.015496 0.023465 0.982338 0.000194 -0.187116 
0.019839 -0.036048 -0.025278 -0.996725 0.011556 -0.080033 
-0.001134 0.030749 0.023077 0.998561 0.042237 -0.033036 
-0.003124 0.030798 0.023106 0.994504 0.075416 -0.072619 
-0.003442 0.014862 0.023654 0.997147 0.002211 -0.075458 
0.001142 0.029223 0.022806 0.999210 0.019026 0.034898 
-0.004081 0.013867 0.023735 0.987641 0.035969 -0.152553 
-0.002022 0.017966 0.023503 0.996875 0.017848 -0.076952 
-0.003109 0.015949 0.023601 0.998678 0.022787 -0.046074 
-0.003495 0.018145 0.023563 0.994732 0.007684 -0.102226 
-0.000466 0.019325 0.023188 0.996521 0.008745 -0.082879 
-0.002310 0.029726 0.023090 0.998276 0.020909 -0.054849 
-0.000310 0.031898 0.022871 0.996208 0.084238 -0.021781 
-0.000445 0.026504 0.023073 0.990224 0.038051 -0.134198 
-0.002789 0.017387 0.023522 0.998534 0.051365 -0.017066 
-0.004110 0.011765 0.023701 0.994453 -0.041702 -0.096564 
0.000116 0.010384 0.023411 0.994603 0.037349 -0.096802 
0.000027 0.027668 0.023017 0.995949 -0.016041 -0.088474 
0.020570 -0.029754 -0.025156 -0.987673 0.005215 -0.156444 
-0.000881 0.029381 0.023038 0.996871 0.033619 -0.071534 
-0.001036 0.016694 0.023397 0.985744 0.033811 -0.164818 
0.000215 0.030072 0.022907 0.995714 -0.075299 -0.053699 
-0.001804 0.015187 0.023603 0.988887 -0.033862 -0.144762 
0.000064 0.022187 0.023072 0.996234 0.036402 -0.078692 
-0.001598 0.026509 0.023170 0.998099 0.041237 -0.045803 
-0.001138 0.021621 0.023236 0.991752 0.057990 -0.114302 
-0.001761 0.020489 0.023360 0.992377 0.042928 -0.115518 
-0.000799 0.025321 0.023223 0.997442 0.032766 -0.063534 
-0.002373 0.023909 0.023291 0.990558 0.028559 -0.134084 
-0.000974 0.027510 0.023113 0.999163 0.010207 -0.039614 
-0.001623 0.022640 0.023228 0.992976 0.034596 -0.113147 
-0.000801 0.023831 0.023207 0.997976 -0.008482 -0.063019 
-0.004116 0.030015 0.023296 0.988385 0.046192 -0.144779 
-0.000101 0.020633 0.023204 0.997434 0.039421 -0.059753 
-0.002384 0.021904 0.023454 0.992951 0.027984 -0.115171 
0.000098 0.025547 0.023036 0.982344 0.085486 -0.166407 
0.001314 0.014774 0.023248 0.997742 0.027302 -0.061366 
-0.003628 0.022593 0.023521 0.996462 0.014070 -0.082856 
-0.004489 0.025117 0.023688 0.996739 -0.002567 -0.080648 
-0.003310 0.025065 0.023477 0.980693 0.044235 -0.190484 
-0.005465 0.028388 0.023535 0.995511 -0.034811 -0.088006 
-0.004761 0.022291 0.023703 0.982810 0.048325 -0.178183 
-0.004565 0.019863 0.023817 0.987421 0.051533 -0.149482 
-0.004627 0.027769 0.023510 0.995172 0.048856 -0.085117 
-0.006260 0.020976 0.024037 0.988035 -0.020450 -0.152865 
-0.009582 0.021630 0.024614 0.988872 0.004719 -0.148696 
-0.007097 0.021607 0.024218 0.993050 0.006146 -0.117531 
-0.005340 0.026982 0.023564 0.990321 0.119257 -0.071006 
-0.006723 0.025207 0.024004 0.971625 0.017211 -0.235901 
-0.004708 0.023661 0.023603 0.995931 0.004727 -0.089994 
-0.007138 0.031058 0.023744 0.981832 0.189723 0.003216 
-0.008282 0.030476 0.023752 0.975175 0.185973 0.120197 
-0.004816 0.029104 0.023463 0.990153 0.027025 -0.137357 
-0.007964 0.029332 0.023913 0.995867 0.090695 -0.004856 
-0.004672 0.031465 0.023265 0.978901 0.153711 -0.134632 
-0.005568 0.027663 0.023504 0.993742 0.052957 -0.098351 
-0.007943 0.026255 0.024242 0.992419 0.102816 -0.067333 
-0.005432 0.030455 0.023546 0.983986 0.071042 -0.163476 
-0.008288 0.026657 0.024179 0.992045 0.124868 -0.015983 
-0.008856 0.021943 0.024455 0.986130 0.010235 -0.165658 
-0.003231 0.029847 0.023220 0.992780 0.055462 -0.106357 
-0.005684 0.024456 0.023704 0.990454 -0.009044 -0.137543 
-0.006421 0.030843 0.023705 0.980425 0.133481 -0.144740 
0.021439 -0.030381 -0.024973 -0.937199 0.023835 -0.347978 
-0.014946 0.069305 -0.009093 -0.172470 0.925253 0.337878 
-0.012424 0.070037 -0.009950 -0.292516 0.897223 0.330795 
-0.013620 0.069728 -0.009519 -0.183172 0.931253 0.314984 
-0.016179 0.068982 -0.008239 0.030086 0.959024 0.281724 
-0.011437 0.070265 -0.010349 -0.573359 0.782878 0.241583 
-0.009350 0.070512 -0.010525 -0.833844 0.551179 0.030109 
-0.008030 0.069447 -0.010633 -0.945694 0.184210 -0.267823 
-0.008461 0.070351 -0.010540 -0.923114 0.321103 -0.211549 
-0.010330 0.070631 -0.010235 -0.543434 0.820183 0.178826 
-0.008298 0.057412 0.017555 -0.064261 0.953359 0.294919 
-0.006659 0.057941 0.016860 -0.068289 0.935075 0.347811 
-0.006384 0.058107 0.018155 -0.011441 0.936085 0.351587 
-0.004840 0.058711 0.017305 -0.055659 0.926416 0.372366 
-0.002504 0.059633 0.017223 -0.039527 0.941767 0.333936 
-0.003724 0.059075 0.016198 -0.103526 0.926858 0.360856 
-0.011597 0.056646 0.018961 0.038553 0.967486 0.249968 
-0.011932 0.056406 0.019753 0.328968 0.912613 0.242731 
-0.012454 0.056019 0.014713 0.275319 0.890786 0.361524 
-0.012990 0.055899 0.020204 0.570534 0.790736 0.221872 
-0.000703 0.060152 0.016291 -0.089521 0.953211 0.288748 
-0.001921 0.059656 0.015458 -0.131450 0.936988 0.323689 
0.001137 0.060614 0.015820 -0.093743 0.967636 0.234290 
-0.002504 0.059633 0.017223 -0.039527 0.941767 0.333936 
0.002651 0.060771 0.014238 -0.109526 0.972409 0.205971 
0.002649 0.060922 0.015830 -0.071960 0.983819 0.164080 
-0.000431 0.059873 0.013600 -0.121315 0.951374 0.283144 
-0.010024 0.056924 0.017209 -0.091843 0.966247 0.240692 
-0.011612 0.056599 0.017717 -0.081354 0.964163 0.252529 
-0.009844 0.057050 0.018403 -0.026123 0.970511 0.239639 
-0.011385 0.056450 0.015858 -0.081678 0.959632 0.269136 
-0.012454 0.056019 0.014713 0.275319 0.890786 0.361524 
-0.013324 0.055803 0.015260 -0.091621 0.948368 0.303652 
-0.013298 0.056019 0.016845 -0.113723 0.949723 0.291707 
-0.008298 0.057412 0.017555 -0.064261 0.953359 0.294919 
-0.011597 0.056646 0.018961 0.038553 0.967486 0.249968 
-0.001262 0.069508 0.010114 0.645476 0.271316 -0.713967 
-0.006107 0.071415 0.012752 0.586759 0.799625 -0.127724 
0.000768 0.063988 0.008501 0.577019 0.143158 -0.804087 
0.003038 0.061979 0.006115 0.398858 0.412757 -0.818868 
0.003291 0.061230 0.006593 0.376261 0.802813 -0.462514 
-0.004123 0.072265 0.011021 0.525078 0.840442 -0.133982 
-0.003611 0.072436 0.010551 0.461654 0.862001 -0.209358 
-0.001719 0.070633 0.010160 0.660103 0.260694 -0.704488 
-0.001980 0.071340 0.010169 0.668952 0.329484 -0.666291 
0.003946 0.061069 0.015302 -0.036574 0.995206 0.090705 
-0.002955 0.059847 0.012915 0.857501 0.371701 -0.355710 
-0.003878 0.060182 0.013146 0.883147 0.320744 -0.342308 
0.001848 0.063763 0.007056 0.439284 0.319536 -0.839599 
-0.007014 0.071316 0.013082 0.478367 0.878050 0.013905 
-0.002612 0.059254 0.013159 0.512480 0.858698 0.001484 
-0.005856 0.061178 0.013908 0.928357 0.010602 -0.371539 
-0.004453 0.061545 0.013182 0.894010 0.000784 -0.448046 
-0.002193 0.072130 0.009918 0.644052 0.489972 -0.587473 
0.002651 0.060771 0.014238 -0.109526 0.972409 0.205971 
-0.004676 0.072200 0.011172 0.410270 0.911931 0.007702 
-0.005333 0.071903 0.011869 0.471167 0.881926 -0.014405 
-0.000485 0.067778 0.009989 0.636506 0.254603 -0.728037 
-0.001628 0.059426 0.013012 0.157394 0.967500 0.197915 
0.002543 0.062792 0.006564 0.394643 0.379865 -0.836636 
-0.003021 0.072309 0.010358 0.607985 0.680116 -0.409629 
0.000146 0.065394 0.009734 0.596332 -0.057062 -0.800707 
0.000246 0.066692 0.009487 0.611167 0.152488 -0.776674 
0.001648 0.060323 0.012846 -0.120590 0.960297 0.251569 
-0.003895 0.060927 0.012901 0.905548 0.158686 -0.393448 
-0.000431 0.059873 0.013600 -0.121315 0.951374 0.283144 
0.006323 0.060934 0.015958 -0.144574 0.988847 0.035764 
0.005171 0.061073 0.015734 0.006385 0.995532 -0.094206 
0.005511 0.060973 0.017019 0.080469 0.996087 -0.036532 
0.007778 0.061373 0.017525 -0.001122 0.918005 0.396567 
0.007565 0.061276 0.016169 -0.054430 0.925385 0.375100 
0.006814 0.061029 0.017160 0.035731 0.976436 0.212830 
0.003946 0.061069 0.015302 -0.036574 0.995206 0.090705 
0.004457 0.061073 0.016441 0.028506 0.999398 -0.019785 
0.008881 0.061915 0.016761 0.021463 0.878559 0.477151 
-0.005856 0.061178 0.013908 0.928357 0.010602 -0.371539 
-0.005507 0.062451 0.013804 0.896175 -0.128412 -0.424712 
-0.008267 0.060463 0.014413 0.997105 -0.053953 -0.053586 
-0.007024 0.060168 0.014310 0.985473 0.079586 -0.150031 
-0.007258 0.061297 0.014332 0.974955 -0.090728 -0.203055 
-0.004581 0.063656 0.013593 0.879434 -0.114333 -0.462087 
-0.005257 0.068660 0.013578 0.881802 0.165339 -0.441687 
-0.005390 0.067274 0.013826 0.910956 0.113210 -0.396665 
-0.010006 0.059342 0.014417 0.999260 0.014837 0.035486 
-0.009288 0.060026 0.014372 0.998967 -0.045058 -0.005971 
-0.011617 0.059608 0.014370 0.972782 -0.187143 0.136649 
-0.004855 0.065342 0.013841 0.900150 0.042744 -0.433477 
-0.007813 0.070868 0.013649 0.696410 0.717642 -0.001703 
-0.006098 0.069304 0.013829 0.918030 0.205836 -0.338899 
-0.006507 0.070173 0.013740 0.900201 0.316397 -0.299218 
-0.006783 0.070886 0.013471 0.796250 0.570417 -0.201522 
-0.010141 0.059535 -0.011155 -0.989198 -0.105849 0.101409 
-0.010528 0.061011 -0.011332 -0.989747 -0.116749 0.082280 
-0.010924 0.063077 -0.011437 -0.998517 0.000882 0.054440 
-0.010869 0.058570 -0.010929 -0.977266 0.037028 0.208757 
-0.004848 0.063448 -0.010588 -0.912382 0.113141 -0.393392 
-0.006028 0.064257 -0.010882 -0.942354 0.134944 -0.306200 
-0.006299 0.066234 -0.010599 -0.913551 0.168828 -0.370029 
-0.006982 0.068430 -0.010487 -0.907230 0.189323 -0.375620 
-0.012462 0.056847 -0.011658 -0.294863 0.896130 0.331673 
-0.011281 0.057516 -0.011113 -0.721457 0.626288 0.295403 
-0.013381 0.056159 -0.013021 -0.308282 0.879604 0.362296 
-0.014084 0.055364 -0.014022 -0.467012 0.774736 0.426243 
-0.013120 0.055191 -0.015002 -0.387224 0.834266 0.392502 
-0.008274 0.067852 -0.010910 -0.975103 0.132221 -0.178025 
-0.008030 0.069447 -0.010633 -0.945694 0.184210 -0.267823 
-0.010382 0.066694 -0.011212 -0.996159 0.077433 -0.040890 
-0.009751 0.068020 -0.011049 -0.989013 0.114873 -0.093047 
-0.010936 0.065330 -0.011290 -0.998031 0.060934 -0.014848 
0.006186 0.059884 -0.023422 -0.611971 0.678239 0.406796 
0.006616 0.060714 -0.022155 -0.200335 0.858600 0.471881 
0.005951 0.060076 -0.022869 -0.371723 0.789346 0.488625 
0.005503 0.059038 -0.023793 -0.739875 0.593068 0.317578 
-0.020153 0.052024 -0.019120 0.001290 0.915645 0.401986 
-0.021208 0.051538 -0.020782 -0.031291 0.863865 0.502751 
-0.018475 0.052727 -0.018128 0.014590 0.913391 0.406821 
-0.011417 0.055523 -0.016078 -0.181476 0.921454 0.343496 
-0.021752 0.050631 -0.023724 -0.578628 0.429488 0.693347 
-0.021777 0.050910 -0.022988 -0.183040 0.657935 0.730491 
-0.017878 0.052912 -0.016328 0.020130 0.909551 0.415105 
-0.016564 0.053533 -0.015116 -0.036367 0.901334 0.431594 
-0.021739 0.051076 -0.022051 -0.077999 0.725575 0.683709 
-0.013120 0.055191 -0.015002 -0.387224 0.834266 0.392502 
-0.014618 0.054403 -0.015116 -0.152371 0.893385 0.422665 
-0.001846 0.060753 -0.009381 -0.638384 0.744624 -0.194938 
-0.002977 0.062363 -0.009624 -0.831788 0.060514 -0.551785 
-0.002160 0.061567 -0.009189 -0.820360 0.220769 -0.527513 
0.002589 0.059565 -0.016427 0.122715 0.963115 0.239481 
0.001300 0.059386 -0.016865 0.124041 0.955986 0.265901 
0.004146 0.060029 -0.016489 0.032382 0.941707 0.334871 
-0.007471 0.056660 -0.019585 -0.062759 0.953454 0.294936 
-0.008959 0.056333 -0.018242 -0.042545 0.952887 0.300327 
-0.001018 0.058553 -0.021367 -0.209263 0.940695 0.267025 
-0.001421 0.058020 -0.022539 -0.410964 0.881571 0.232251 
0.000016 0.059094 -0.018731 0.029796 0.953401 0.300231 
-0.000254 0.058963 -0.019873 -0.082376 0.955684 0.282633 
0.000237 0.058819 -0.015381 0.170958 0.950840 0.258217 
-0.007914 0.055266 -0.023860 -0.570429 0.780271 0.256492 
-0.007718 0.056078 -0.022610 -0.384630 0.871432 0.304410 
-0.001720 0.057540 -0.023208 -0.602054 0.771589 0.205379 
0.000319 0.058620 -0.014365 -0.060964 0.986393 0.152686 
-0.000714 0.058727 -0.014042 -0.400875 0.914162 -0.060054 
0.000364 0.059002 -0.016439 0.112637 0.955938 0.271102 
0.001300 0.059386 -0.016865 0.124041 0.955986 0.265901 
0.000465 0.059134 -0.017735 0.051853 0.949859 0.308348 
-0.000693 0.059268 -0.013150 -0.492815 0.864407 -0.099670 
-0.009727 0.056867 -0.014480 -0.384332 0.865434 0.321423 
-0.002813 0.056286 -0.024009 -0.844304 0.524849 0.108092 
-0.001263 0.057191 -0.023694 -0.772442 0.616770 0.151422 
-0.007559 0.056502 -0.021268 -0.158677 0.938841 0.305614 
-0.001776 0.059844 -0.011887 -0.337987 0.938054 0.076289 
-0.010091 0.056276 -0.015383 -0.346998 0.879014 0.326996 
-0.008145 0.058171 -0.012094 -0.443999 0.838081 0.316995 
-0.009788 0.057186 -0.013504 -0.268851 0.913336 0.305836 
-0.007440 0.058816 -0.011577 -0.711307 0.682863 0.166554 
-0.009686 0.057518 -0.012261 -0.288248 0.907042 0.306902 
-0.009227 0.056260 -0.016869 -0.105929 0.941681 0.319399 
-0.000831 0.059691 -0.012390 -0.426728 0.904274 -0.013817 
-0.007609 0.059521 -0.011204 -0.981149 0.185152 -0.055368 
-0.011417 0.055523 -0.016078 -0.181476 0.921454 0.343496 
-0.001147 0.060406 -0.010345 -0.319060 0.946752 0.043138 
-0.002746 0.060379 -0.010109 -0.573199 0.810093 -0.123256 
-0.001846 0.060753 -0.009381 -0.638384 0.744624 -0.194938 
-0.000763 0.060836 -0.009015 -0.426619 0.893825 -0.138109 
-0.002977 0.062363 -0.009624 -0.831788 0.060514 -0.551785 
-0.003362 0.061138 -0.009923 -0.872719 0.200871 -0.444985 
-0.004848 0.063448 -0.010588 -0.912382 0.113141 -0.393392 
-0.003681 0.063439 -0.010000 -0.858868 0.126166 -0.496416 
-0.006514 0.060752 -0.011046 -0.978771 -0.023339 -0.203622 
-0.006424 0.059885 -0.011010 -0.972998 0.123851 -0.194769 
-0.006001 0.062395 -0.011025 -0.962924 0.012534 -0.269482 
-0.007591 0.054767 -0.024494 -0.760934 0.634007 0.137890 
-0.006576 0.071664 0.012055 0.221065 0.955599 0.194833 
-0.007014 0.071316 0.013082 0.478367 0.878050 0.013905 
-0.008978 0.070574 0.013842 0.642164 0.755607 0.129165 
-0.011495 0.069239 0.014610 0.953071 0.294356 0.070789 
-0.010850 0.069778 0.014407 0.821536 0.565377 0.073676 
-0.009906 0.070029 0.014255 0.822309 0.569033 0.003031 
-0.007151 0.071592 0.011094 -0.038795 0.938337 0.343538 
-0.008381 0.071098 0.010566 -0.106692 0.944194 0.311632 
-0.009671 0.070586 0.009712 -0.154899 0.937016 0.313060 
-0.010193 0.070138 0.008324 -0.163295 0.909203 0.382994 
-0.011749 0.069371 0.008541 -0.198231 0.838432 0.507677 
-0.012092 0.068907 0.007099 -0.050672 0.822511 0.566488 
-0.013561 0.067813 0.006093 -0.008547 0.816502 0.577279 
-0.014352 0.067610 -0.001864 0.087379 0.929410 0.358556 
-0.014971 0.067207 0.000800 0.038577 0.873991 0.484409 
-0.014706 0.067073 0.005438 -0.034172 0.869020 0.493596 
-0.015269 0.066771 0.003708 0.032063 0.882029 0.470103 
-0.007813 0.070868 0.013649 0.696410 0.717642 -0.001703 
-0.016262 0.055027 0.016473 -0.060094 0.963258 0.261768 
-0.014910 0.055341 0.015679 -0.113262 0.953077 0.280742 
-0.019071 0.053866 0.018630 0.276422 0.775528 0.567580 
-0.018770 0.054263 0.017542 0.095817 0.911517 0.399944 
-0.017651 0.054677 0.016993 -0.004001 0.957545 0.288257 
-0.011907 0.058267 0.014251 0.963309 0.024228 0.267300 
-0.012112 0.057125 0.014223 0.949441 0.052068 0.309599 
-0.012785 0.056628 0.013991 0.895421 0.211718 0.391659 
-0.012088 0.056445 0.014318 0.773466 0.547351 0.319620 
-0.013410 0.055745 0.014000 0.520984 0.733744 0.436114 
-0.014389 0.055314 0.014248 0.115129 0.903167 0.413564 
-0.011617 0.059608 0.014370 0.972782 -0.187143 0.136649 
-0.012454 0.056019 0.014713 0.275319 0.890786 0.361524 
-0.018291 0.068010 0.012554 0.612404 0.498082 0.613902 
-0.011399 0.060817 0.014812 0.960880 -0.272507 0.049501 
-0.011079 0.061755 0.014986 0.993371 -0.109152 0.036064 
-0.011612 0.063241 0.015055 0.994919 -0.025040 0.097510 
-0.016509 0.068411 0.013614 0.802308 0.383054 0.457790 
-0.015057 0.068786 0.014158 0.823908 0.436857 0.361014 
-0.011996 0.065311 0.014937 0.992120 0.047635 0.115882 
-0.019604 0.067688 0.011269 0.374804 0.678561 0.631725 
-0.018867 0.067742 0.012091 0.561743 0.473675 0.678289 
-0.017488 0.068374 0.012934 0.519436 0.700661 0.489142 
-0.011836 0.067174 0.014872 0.995603 0.060022 0.071912 
-0.012755 0.069150 0.014497 0.880130 0.443766 0.168650 
-0.012470 0.068397 0.014723 0.983609 0.150322 0.099586 
-0.013853 0.069153 0.014326 0.755819 0.615807 0.222531 
-0.011495 0.069239 0.014610 0.953071 0.294356 0.070789 
-0.020271 0.053598 0.007096 0.056384 0.326422 0.943541 
-0.020105 0.053821 0.008252 0.143799 0.342222 0.928550 
-0.021991 0.050837 -0.000866 -0.017466 0.369926 0.928897 
-0.023137 0.039801 0.003872 -0.030680 -0.082662 0.996105 
-0.020384 0.053570 0.006084 0.153507 0.269670 0.950639 
-0.021464 0.052226 -0.001458 -0.002561 0.383173 0.923673 
-0.023027 0.038376 0.003819 -0.017272 -0.003918 0.999843 
-0.020722 0.054419 0.004880 0.236475 -0.232610 0.943383 
-0.021292 0.055203 0.003771 0.140033 -0.277747 0.950393 
-0.023057 0.034757 0.003601 -0.014994 -0.011733 0.999819 
-0.023118 0.036922 0.002902 -0.008255 0.000916 0.999965 
-0.023019 0.031122 0.006364 -0.060435 -0.010501 0.998117 
-0.023065 0.033195 0.004112 -0.056700 -0.021195 0.998166 
-0.023013 0.031799 0.004869 -0.048569 -0.053310 0.997396 
-0.020625 0.053475 0.005089 0.169113 0.147292 0.974529 
-0.022466 0.049704 0.000517 0.000101 0.331258 0.943540 
-0.023303 0.041584 0.003027 -0.048311 -0.059861 0.997037 
-0.020779 0.053562 -0.001645 -0.123661 0.377732 0.917620 
-0.023344 0.044001 0.002276 -0.080371 0.007296 0.996738 
-0.023120 0.045603 0.000385 -0.061976 0.041709 0.997206 
-0.023021 0.047142 0.000852 -0.034631 0.135122 0.990224 
-0.022829 0.048371 -0.000771 -0.022497 0.201422 0.979246 
-0.020570 0.054603 -0.001903 -0.309832 -0.113330 0.944013 
-0.023073 0.061943 -0.001003 -0.239462 -0.274778 0.931212 
-0.022491 0.066038 0.008299 0.452460 0.243845 0.857799 
-0.021965 0.062848 0.008315 0.499525 -0.240643 0.832205 
-0.021838 0.066823 0.008621 0.360398 0.585679 0.726012 
-0.022750 0.065115 0.007900 0.451524 -0.060412 0.890211 
-0.022272 0.064318 0.008460 0.533825 -0.183834 0.825370 
-0.021216 0.060900 0.008575 0.506860 -0.241898 0.827393 
-0.023412 0.063546 -0.001435 -0.262125 -0.215018 0.940775 
-0.023501 0.064772 -0.001858 -0.284297 -0.047714 0.957548 
-0.015907 0.068859 -0.007254 0.310321 0.933767 0.178268 
-0.017401 0.068549 -0.007376 0.100574 0.965153 0.241587 
-0.015804 0.066963 -0.000211 0.113716 0.955624 0.271758 
-0.014352 0.067610 -0.001864 0.087379 0.929410 0.358556 
-0.014175 0.067999 -0.003905 0.187839 0.941479 0.279883 
-0.017032 0.066523 0.001083 0.160702 0.980982 0.108851 
-0.014927 0.068117 -0.005064 0.269870 0.937971 0.217669 
-0.017473 0.066213 0.002901 0.090681 0.994426 0.053801 
-0.018637 0.068206 -0.006495 0.116094 0.970140 0.212957 
-0.014976 0.068511 -0.006256 0.377694 0.909838 0.171878 
-0.019603 0.067921 -0.006668 -0.076450 0.945583 0.316273 
-0.016179 0.068982 -0.008239 0.030086 0.959024 0.281724 
-0.019644 0.066760 -0.000140 0.167213 0.983307 -0.071742 
-0.018662 0.066396 0.001547 0.153527 0.987765 -0.027399 
-0.021010 0.067234 0.009541 0.307242 0.701604 0.642926 
-0.020490 0.067228 0.010329 0.435087 0.554232 0.709596 
-0.020249 0.067599 0.009908 0.045775 0.932850 0.357346 
-0.019718 0.067806 -0.005531 0.138230 0.976180 0.167230 
-0.019273 0.067026 -0.001932 0.186539 0.980830 -0.056349 
-0.023925 0.065613 0.001141 -0.015028 0.174459 0.984550 
-0.023725 0.065970 0.002054 0.058111 0.425866 0.902918 
-0.017654 0.066167 0.004457 -0.047546 0.998619 0.022361 
-0.018928 0.066330 0.005115 -0.133123 0.982738 -0.128470 
-0.017473 0.066213 0.002901 0.090681 0.994426 0.053801 
-0.019930 0.067458 0.008719 -0.251514 0.967839 -0.005365 
-0.018967 0.067422 -0.003750 0.258876 0.964557 -0.051122 
-0.020497 0.067608 -0.006551 -0.240843 0.854197 0.460805 
-0.021309 0.067317 -0.005637 -0.215320 0.752653 0.622215 
-0.021838 0.066823 0.008621 0.360398 0.585679 0.726012 
-0.019604 0.067688 0.011269 0.374804 0.678561 0.631725 
-0.023864 0.065272 -0.000238 -0.167638 0.028938 0.985424 
-0.022808 0.065815 -0.003665 -0.381924 0.147316 0.912377 
-0.021891 0.066707 -0.005194 -0.393261 0.342734 0.853158 
-0.023501 0.064772 -0.001858 -0.284297 -0.047714 0.957548 
-0.020408 0.066599 0.005238 -0.143284 0.965561 -0.217167 
-0.021195 0.067167 0.007155 -0.154370 0.988006 0.003792 
-0.021363 0.066908 0.005535 -0.147736 0.978558 -0.143521 
-0.021977 0.066957 0.005983 -0.062101 0.980993 0.183836 
-0.019603 0.067921 -0.006668 -0.076450 0.945583 0.316273 
-0.022885 0.066648 0.003809 0.029758 0.902344 0.429988 
-0.021791 0.067091 0.007166 -0.059045 0.956745 0.284873 
-0.021906 0.067042 0.007774 0.115282 0.845267 0.521760 
-0.023471 0.066186 0.003462 0.057035 0.622575 0.780479 
-0.022638 0.066772 0.005108 0.012535 0.907702 0.419429 
-0.018703 0.067925 -0.005366 0.272885 0.959434 0.070847 
-0.022552 0.059465 0.000601 -0.044022 -0.254809 0.965989 
-0.021804 0.058416 -0.001960 -0.308402 -0.300207 0.902643 
-0.021125 0.057295 -0.002534 -0.334584 -0.326109 0.884142 
-0.020570 0.054603 -0.001903 -0.309832 -0.113330 0.944013 
-0.020806 0.054278 -0.000707 -0.162180 -0.064972 0.984620 
-0.020868 0.053792 0.000083 -0.087628 0.023874 0.995867 
-0.023073 0.061943 -0.001003 -0.239462 -0.274778 0.931212 
-0.022394 0.060072 -0.001389 -0.273297 -0.261651 0.925660 
-0.022776 0.060479 -0.000235 -0.152365 -0.280431 0.947704 
-0.021094 0.054319 0.001368 -0.077618 -0.249468 0.965267 
-0.020929 0.053501 0.000748 -0.059860 0.079223 0.995058 
-0.020716 0.055931 -0.002626 -0.343225 -0.250872 0.905130 
-0.022639 0.059932 0.001699 0.024736 -0.280295 0.959595 
-0.022379 0.058692 0.001863 0.010985 -0.201403 0.979447 
-0.022144 0.057663 0.001441 -0.059025 -0.321202 0.945169 
-0.021607 0.056240 0.001701 -0.073617 -0.239809 0.968025 
-0.021841 0.057021 0.001168 -0.107728 -0.374526 0.920937 
-0.021381 0.055305 0.001015 -0.143541 -0.224989 0.963730 
-0.021423 0.055121 0.002259 0.007204 -0.253349 0.967348 
-0.021493 0.057890 0.006378 0.356785 -0.333785 0.872521 
-0.021325 0.056829 0.005468 0.263654 -0.312553 0.912577 
-0.020947 0.056799 0.006426 0.386564 -0.282303 0.877994 
-0.021448 0.059400 0.007447 0.439162 -0.254512 0.861603 
-0.022030 0.060326 0.006606 0.339252 -0.247411 0.907577 
-0.021292 0.055203 0.003771 0.140033 -0.277747 0.950393 
-0.021216 0.060900 0.008575 0.506860 -0.241898 0.827393 
-0.021906 0.061217 0.007468 0.410741 -0.253673 0.875752 
-0.021094 0.054319 0.001368 -0.077618 -0.249468 0.965267 
-0.022493 0.059664 0.002823 0.051536 -0.255291 0.965490 
-0.022318 0.059565 0.004857 0.127255 -0.224816 0.966056 
-0.022334 0.059282 0.003971 0.059243 -0.208352 0.976258 
-0.022230 0.059926 0.005718 0.243705 -0.233821 0.941242 
-0.021575 0.056602 0.004160 0.148013 -0.306283 0.940363 
-0.022639 0.059932 0.001699 0.024736 -0.280295 0.959595 
-0.023219 0.029578 0.008140 -0.113711 0.040876 0.992673 
-0.023261 0.032616 0.009406 -0.081485 -0.030803 0.996198 
-0.023209 0.034304 0.008545 -0.063330 -0.010864 0.997933 
-0.018920 0.052741 0.020852 0.370545 0.761302 0.532086 
-0.020105 0.053821 0.008252 0.143799 0.342222 0.928550 
-0.020723 0.052402 0.008203 0.086362 0.467780 0.879616 
-0.020267 0.053171 0.009263 0.116209 0.520886 0.845679 
-0.020159 0.053201 0.010497 -0.035593 0.617481 0.785780 
-0.020078 0.053444 0.011489 -0.088589 0.724004 0.684084 
-0.020121 0.053647 0.015508 0.022733 0.589942 0.807126 
-0.020094 0.053700 0.014614 -0.044131 0.615766 0.786692 
-0.020134 0.053502 0.012349 -0.071584 0.664332 0.744002 
-0.019961 0.053756 0.013627 -0.081231 0.760049 0.644769 
-0.020106 0.053571 0.016547 0.104819 0.570394 0.814656 
-0.023368 0.039962 0.011674 -0.030797 -0.004227 0.999517 
-0.023391 0.038563 0.011188 -0.029569 0.021480 0.999332 
-0.023365 0.042180 0.010569 -0.007427 0.011603 0.999905 
-0.023338 0.038116 0.009872 -0.095119 0.009363 0.995422 
-0.023285 0.036780 0.009195 -0.065523 0.008932 0.997811 
-0.023105 0.031567 0.008208 -0.079071 -0.013972 0.996771 
-0.021651 0.051004 0.009783 0.022994 0.629514 0.776649 
-0.023313 0.043838 0.010787 0.035101 0.054940 0.997872 
-0.023258 0.035580 0.008720 -0.044298 -0.023221 0.998748 
-0.021440 0.051367 0.008390 0.055524 0.612977 0.788147 
-0.023299 0.027085 0.008138 -0.153159 -0.005515 0.988186 
-0.023305 0.045259 0.009586 0.036801 0.085240 0.995681 
-0.023145 0.047039 0.008633 0.023764 0.163046 0.986332 
-0.018907 0.053458 0.019721 0.368868 0.668521 0.645768 
-0.022237 0.050093 0.008992 0.014468 0.419607 0.907590 
