0.017237 0.100330 -0.035107 -0.959378 0.279932 -0.035103 
0.036987 0.000694 0.021405 0.008383 0.091299 -0.995788 
0.014741 0.100101 -0.035254 -0.780701 0.598538 -0.179606 
0.036761 0.005260 0.025621 0.051312 0.102633 -0.993395 
0.036638 0.005024 0.022383 -0.003361 0.196008 -0.980596 
0.037148 0.006918 0.026850 0.056122 -0.189715 -0.980234 
0.037143 0.007635 0.026290 -0.036591 0.172685 -0.984297 
0.016893 0.090070 -0.036540 -0.208419 0.198305 -0.957725 
0.015603 0.095182 -0.036560 -0.961585 0.158299 -0.224267 
0.037063 0.007252 0.025615 -0.005635 -0.018236 -0.999818 
0.015916 0.096925 -0.035350 -0.576730 0.302659 -0.758802 
0.036762 0.010104 0.020743 0.046947 -0.001991 -0.998895 
0.015452 0.092131 -0.036797 -0.963399 0.050976 0.263181 
0.016147 0.094733 -0.036088 -0.448950 0.265481 -0.853208 
0.036747 0.009930 0.025503 0.033777 0.004054 -0.999421 
0.016464 0.093922 -0.035773 -0.653852 0.272522 -0.705839 
0.015685 0.096171 -0.036210 -0.725538 0.171117 -0.666568 
0.015145 0.094346 -0.036451 -0.969719 0.081456 0.230240 
0.016109 0.095070 -0.035694 -0.535789 0.201670 -0.819914 
0.036768 0.009627 0.023742 0.061143 -0.004465 -0.998119 
0.014985 0.096299 -0.036334 -0.976935 0.106281 0.185211 
0.036771 0.005904 0.026547 0.052473 -0.211596 -0.975948 
0.036781 0.009334 0.021702 0.019408 0.005813 -0.999795 
0.016449 0.094714 -0.035567 -0.857916 0.234080 -0.457370 
0.015823 0.093053 -0.036906 -0.987175 0.126920 -0.096836 
0.036750 0.009454 0.022577 0.046041 0.054587 -0.997447 
0.036731 0.008505 0.021397 0.021752 0.086472 -0.996017 
0.036680 0.010825 0.020414 0.101916 0.058924 -0.993046 
0.036735 0.009143 0.020513 0.036878 0.045897 -0.998265 
0.036783 0.011446 0.023882 0.030139 0.025400 -0.999223 
0.036772 0.010831 0.025505 0.054389 0.013713 -0.998426 
0.037107 0.007453 0.017674 -0.068862 0.144274 -0.987139 
0.036875 0.007386 0.015727 0.090021 0.197213 -0.976219 
0.036701 0.003834 0.015443 0.028800 -0.114260 -0.993033 
0.014553 0.097446 -0.036082 -0.945056 0.121559 0.303467 
0.036791 0.004785 0.017949 0.057269 -0.041767 -0.997485 
0.036680 0.009661 0.019602 0.032580 -0.068445 -0.997123 
0.036895 0.010467 0.019458 0.040546 -0.014807 -0.999068 
0.015385 0.097288 -0.036136 -0.884171 0.256891 -0.390191 
0.036648 0.012654 0.020895 0.035558 0.010589 -0.999311 
0.036676 0.012706 0.023735 0.020121 0.070122 -0.997335 
0.036740 0.012103 0.023334 -0.006341 0.097649 -0.995201 
0.036840 0.010446 0.026484 0.031412 -0.026608 -0.999152 
0.011485 0.101726 -0.031081 -0.274642 0.872530 0.404059 
0.013368 0.100964 -0.034212 -0.741679 0.558931 0.370821 
0.013586 0.101717 -0.033564 -0.605576 0.748639 0.269847 
0.036777 0.009989 0.027208 0.013936 0.037046 -0.999216 
0.036918 0.009320 0.026683 0.031779 0.089885 -0.995445 
-0.025706 -0.104681 -0.029551 0.376210 -0.844507 0.381148 
0.013003 0.102927 -0.031381 -0.353901 0.798909 0.486310 
0.036847 0.013671 0.027453 0.085286 -0.026371 -0.996007 
0.036746 0.012845 0.026924 0.032748 -0.024466 -0.999164 
0.013071 0.099570 -0.034876 -0.861685 0.395852 0.317489 
0.015393 0.100444 -0.033938 -0.574856 0.764824 -0.290835 
0.013342 0.103891 -0.028832 -0.178892 0.980800 0.077645 
0.010691 0.100800 -0.032950 -0.438163 0.878021 0.192594 
0.011803 0.101426 -0.032351 -0.406300 0.825420 0.391921 
0.036666 0.013017 0.024518 0.108126 -0.022985 -0.993871 
0.010964 0.099118 -0.034685 -0.929364 0.365778 -0.049896 
0.036838 0.008843 0.031079 0.055224 0.141673 -0.988372 
0.012502 0.100709 -0.033924 -0.720480 0.496113 0.484542 
0.012574 0.098735 -0.034925 -0.914484 0.328961 0.235593 
0.036968 0.004543 0.027674 0.037234 0.161663 -0.986143 
0.037038 0.000676 0.027387 0.041841 0.115479 -0.992428 
0.011990 0.100243 -0.033662 -0.718549 0.648506 0.251250 
0.037402 -0.000087 0.027077 0.074042 0.227831 -0.970882 
0.037272 0.000039 0.027986 0.069210 0.189961 -0.979349 
0.006049 0.061643 -0.033051 -0.984300 0.174488 0.026612 
0.005023 0.061616 -0.033035 -0.990578 0.136171 -0.014590 
0.005559 0.062015 -0.032859 -0.985507 0.167715 -0.025462 
0.036982 0.000441 0.024041 0.013119 0.154036 -0.987978 
0.011303 0.060534 -0.033314 -0.998474 -0.029042 -0.046968 
0.008700 0.061371 -0.033287 -0.982391 0.186468 0.011771 
0.037328 -0.001139 0.024159 0.049019 -0.131023 -0.990167 
0.037103 -0.010018 0.026495 0.053726 0.013474 -0.998465 
0.037111 -0.004615 0.024185 0.024571 -0.072590 -0.997059 
0.037047 -0.002835 0.022235 -0.007662 0.209214 -0.977840 
0.037252 -0.003424 0.023441 0.043653 0.091991 -0.994803 
0.005772 0.099621 -0.032271 -0.109518 0.971814 0.208765 
0.007107 0.099866 -0.032000 -0.186640 0.958038 0.217553 
0.036977 0.003364 0.026787 0.040922 0.048270 -0.997996 
0.005239 0.099492 -0.028996 -0.045148 0.971924 0.230923 
0.000620 0.098633 -0.031008 -0.123077 0.973644 0.192013 
0.036993 0.000553 0.022729 0.033462 0.117757 -0.992479 
0.037003 0.001196 0.025572 0.032806 0.009458 -0.999417 
0.000095 0.098368 -0.025092 0.059077 0.974649 0.215798 
0.037104 -0.001855 0.028950 0.075934 -0.043043 -0.996183 
0.036716 0.005289 0.027109 0.043383 0.122770 -0.991486 
0.037090 0.002311 0.025391 0.022281 0.031362 -0.999260 
0.037276 -0.011289 0.025686 0.028201 0.066233 -0.997406 
0.037405 -0.016016 0.026826 0.081358 0.001048 -0.996684 
0.037220 -0.013114 0.022574 0.052263 0.001504 -0.998632 
0.037212 -0.012817 0.020262 0.028455 -0.029359 -0.999164 
0.037334 -0.012255 0.024970 0.004468 0.005834 -0.999973 
0.037277 -0.012465 0.023251 0.059556 0.011390 -0.998160 
0.009898 0.099250 -0.034621 -0.889482 0.428796 0.157974 
-0.037773 -0.056794 0.037068 0.613181 0.029437 0.789393 
0.006849 0.099607 -0.032699 -0.478673 0.877970 0.006372 
0.037114 -0.007676 0.020964 0.033479 -0.001663 -0.999438 
0.037267 -0.008750 0.021754 0.035976 0.010804 -0.999294 
0.011269 0.061778 -0.033323 -0.999932 0.008040 -0.008444 
0.010213 0.059536 -0.033299 -0.998988 -0.009798 -0.043889 
0.037166 -0.007955 0.022688 0.043141 0.054222 -0.997597 
0.037183 -0.007973 0.018401 0.071452 0.081335 -0.994122 
0.037298 -0.015745 0.018223 0.048857 0.057617 -0.997143 
0.037232 -0.013775 0.021011 0.043187 0.004071 -0.999059 
0.037347 -0.012438 0.021552 0.034417 0.000445 -0.999408 
0.037003 -0.009068 0.013495 0.004208 -0.101149 -0.994862 
0.037266 -0.012516 0.018974 0.030461 0.008592 -0.999499 
0.001480 0.098645 -0.032304 -0.285007 0.924672 0.252495 
0.037273 -0.016007 0.016937 0.077804 0.007213 -0.996943 
0.037477 -0.015246 0.015937 0.090811 0.033265 -0.995312 
0.037164 -0.009439 0.019631 0.044484 0.022087 -0.998766 
0.037252 -0.013795 0.019694 0.038895 0.022514 -0.998990 
0.007228 0.099087 -0.033162 -0.761123 0.647037 -0.045112 
0.008155 0.099107 -0.033456 -0.704598 0.583784 0.403407 
-0.001896 0.097851 -0.031555 -0.322281 0.920671 0.220228 
0.037243 -0.013671 0.018319 0.061757 0.005697 -0.998075 
-0.002198 0.098078 -0.030316 -0.101952 0.968722 0.226238 
0.037280 -0.012021 0.013306 0.056150 -0.029295 -0.997993 
0.037198 -0.012939 0.014290 0.034786 -0.028623 -0.998985 
0.037201 -0.007124 0.027253 0.055754 -0.035074 -0.997828 
0.037189 -0.008203 0.027470 0.038645 0.050488 -0.997977 
0.037221 -0.009090 0.026527 0.029118 -0.000515 -0.999576 
-0.001030 0.062242 -0.032410 -0.997051 0.068650 -0.034285 
0.037134 -0.007568 0.026242 0.078150 -0.022091 -0.996697 
0.037264 -0.011467 0.027076 0.087051 0.021548 -0.995971 
0.037360 -0.014213 0.025657 0.034837 0.096133 -0.994759 
0.037167 -0.012373 0.027470 0.098724 -0.000555 -0.995115 
-0.005418 0.061176 -0.032789 -0.983614 0.179695 -0.014590 
0.037485 -0.018222 0.028258 0.099610 0.008929 -0.994986 
0.037576 -0.028636 0.021406 0.040624 0.012672 -0.999094 
0.004059 0.061516 -0.032996 -0.982454 0.186283 -0.009055 
0.005045 0.062655 -0.032857 -0.990494 -0.134595 -0.028399 
0.037321 -0.019309 0.020369 0.053694 0.068550 -0.996202 
0.007171 0.061134 -0.033280 -0.996389 0.077895 0.033769 
0.037292 -0.017084 0.022682 0.036190 0.030809 -0.998870 
0.010812 0.058200 -0.033343 -0.999780 0.011864 0.017323 
0.037493 -0.015185 0.025872 0.050043 0.013832 -0.998651 
0.037287 -0.022820 0.025667 0.029702 -0.055404 -0.998022 
0.037358 -0.023159 0.025309 0.139135 0.332178 -0.932898 
0.037646 -0.026515 0.026708 0.098721 0.108615 -0.989170 
0.037473 -0.020347 0.020987 0.053249 0.133873 -0.989567 
0.037444 -0.021995 0.012965 0.010076 -0.077164 -0.996967 
0.001332 0.047198 -0.032865 -0.999599 -0.022545 -0.017157 
0.037606 -0.021321 0.012113 0.059675 -0.166441 -0.984244 
0.037352 -0.016510 0.023657 0.024590 0.011683 -0.999629 
0.037447 -0.020315 0.014453 0.065984 0.235246 -0.969694 
0.037211 -0.014880 0.018997 0.021442 0.025364 -0.999448 
0.037484 -0.020157 0.018952 0.033158 0.086697 -0.995683 
0.037651 -0.026437 0.021413 0.081239 0.144192 -0.986209 
0.037443 -0.018014 0.024729 0.053844 0.019840 -0.998352 
0.037392 -0.017950 0.023103 0.025388 0.033616 -0.999112 
0.037378 -0.018929 0.023701 0.028620 0.018410 -0.999421 
0.037363 -0.014959 0.022964 0.000165 0.008461 -0.999964 
0.037345 -0.016371 0.029623 0.078197 0.006591 -0.996916 
0.037554 -0.022044 0.026170 0.079151 -0.206853 -0.975165 
0.037558 -0.028372 0.027980 0.099387 0.015165 -0.994933 
0.037548 -0.027607 0.026535 0.070923 -0.050280 -0.996214 
-0.004543 0.055539 -0.032640 -0.998601 -0.024351 -0.046939 
-0.026616 -0.091570 -0.038785 -0.996032 0.027040 -0.084795 
-0.026308 -0.089835 -0.038685 -0.992776 0.051470 -0.108385 
0.037538 -0.025019 0.022664 0.046097 -0.121403 -0.991532 
0.037671 -0.024487 0.023023 0.049019 -0.090889 -0.994654 
0.037613 -0.024636 0.026835 0.028550 -0.124579 -0.991799 
0.037510 -0.022054 0.020226 0.042985 -0.117633 -0.992126 
0.037583 -0.021300 0.021617 0.051184 -0.028471 -0.998283 
-0.028488 -0.095153 -0.038894 -0.997255 0.026918 -0.068981 
0.037431 -0.019671 0.022463 0.032121 0.069388 -0.997073 
0.037342 -0.016386 0.025291 0.030085 -0.007993 -0.999515 
0.003743 0.054989 -0.032871 -0.999963 0.005545 -0.006584 
0.037374 -0.015026 0.020602 0.045757 0.030627 -0.998483 
0.037205 -0.014700 0.021795 0.039584 0.042427 -0.998315 
0.007723 0.055926 -0.033168 -0.996003 -0.088713 0.010364 
0.037360 -0.014949 0.024510 0.024566 0.028628 -0.999288 
0.037324 -0.017595 0.019917 0.060309 0.020407 -0.997971 
0.037320 -0.016001 0.022038 0.044304 0.013257 -0.998930 
0.037301 -0.016114 0.019509 0.039438 0.024547 -0.998921 
0.037341 -0.016920 0.016611 0.029533 0.072626 -0.996922 
-0.018585 -0.103106 -0.039087 -0.996467 0.035117 -0.076285 
-0.020388 -0.102503 -0.039071 -0.994486 0.055339 -0.089084 
0.037259 -0.010790 0.017589 0.056523 0.029727 -0.997959 
0.037245 -0.011800 0.017641 0.050236 -0.005192 -0.998724 
0.037164 -0.009919 0.016412 0.002464 0.053320 -0.998574 
0.037235 -0.012408 0.016191 0.054948 0.013641 -0.998396 
0.037345 -0.013535 0.017069 0.057091 0.026425 -0.998019 
0.037337 -0.006818 0.013746 0.098019 -0.003317 -0.995179 
0.037191 -0.011211 0.016671 0.032045 0.021224 -0.999261 
0.036991 -0.008801 0.014914 0.029903 -0.006731 -0.999530 
0.011959 0.054401 -0.033407 -0.995437 0.094751 0.011297 
0.037037 -0.007453 0.015135 0.096045 -0.057110 -0.993737 
0.037286 -0.019276 0.013408 0.038692 0.065390 -0.997109 
0.037321 -0.016184 0.015609 0.048553 -0.072221 -0.996206 
0.037469 -0.017881 0.016787 0.030780 0.017653 -0.999370 
0.009462 0.057654 -0.033227 -0.999789 -0.017954 0.010011 
0.037709 -0.020687 0.013038 0.058432 0.122609 -0.990734 
0.037523 -0.025808 0.017435 0.063941 0.065317 -0.995814 
0.037484 -0.025405 0.015733 0.051791 -0.001080 -0.998657 
0.005281 0.059519 -0.033012 -0.999905 0.013780 0.000482 
0.009548 0.060586 -0.033394 -0.998817 -0.041503 -0.025322 
0.002209 0.061367 -0.032958 -0.975999 0.217553 0.009811 
0.002722 0.061772 -0.032802 -0.963797 0.258302 0.066141 
0.037646 -0.028940 0.014515 0.057965 0.054251 -0.996843 
0.037710 -0.026111 0.015476 0.054149 0.263745 -0.963071 
0.005843 0.060626 -0.033078 -0.999672 -0.014911 0.020839 
0.037805 -0.026690 0.016166 0.085846 -0.018807 -0.996131 
0.037597 -0.028520 0.015980 0.054522 0.049428 -0.997288 
0.002235 0.060133 -0.032905 -0.999091 -0.030525 -0.029763 
0.005909 0.058037 -0.033086 -0.999966 -0.004711 0.006811 
0.037619 -0.027642 0.017051 0.054254 -0.067499 -0.996243 
0.037537 -0.023216 0.016451 0.106557 0.243076 -0.964137 
0.000459 0.062519 -0.032527 -0.998450 -0.051366 0.021426 
0.006162 0.056326 -0.033087 -0.997672 -0.058196 0.035552 
0.037855 -0.023619 0.014929 0.039544 0.131974 -0.990464 
0.037331 -0.022387 0.016698 0.055662 0.012590 -0.998370 
0.037373 -0.018173 0.015050 0.031950 -0.005418 -0.999475 
0.037266 -0.016774 0.014263 0.093134 -0.006904 -0.995630 
0.037293 -0.017163 0.015671 0.007645 0.057467 -0.998318 
0.037703 -0.020838 0.014906 0.013900 0.208682 -0.977885 
0.001098 0.059016 -0.032923 -0.999872 0.012254 0.010248 
-0.003188 0.057920 -0.032807 -0.996174 -0.040978 -0.077191 
0.037682 -0.021271 0.015378 0.130779 -0.132646 -0.982498 
0.001341 0.054901 -0.032798 -0.999796 -0.005753 -0.019381 
-0.002731 0.051956 -0.032729 -0.995525 0.086224 -0.038664 
0.037410 -0.018825 0.018436 0.062605 0.016820 -0.997897 
0.037323 -0.009329 0.027950 0.070746 0.001112 -0.997494 
0.037148 -0.011011 0.018685 0.048321 0.033736 -0.998262 
0.037284 -0.011561 0.020019 0.028525 0.037493 -0.998890 
-0.002945 0.060562 -0.032773 -0.987214 -0.159401 -0.000513 
0.037160 -0.012809 0.017671 0.058223 0.030541 -0.997836 
0.037188 -0.008801 0.017751 0.023474 0.022650 -0.999468 
0.037551 -0.022074 0.024921 0.056385 -0.221473 -0.973535 
0.037735 -0.021301 0.025176 0.030016 0.000416 -0.999549 
0.037503 -0.025852 0.022300 0.052901 0.064970 -0.996484 
0.037613 -0.024269 0.021343 0.015411 0.017193 -0.999733 
0.037722 -0.024266 0.017191 0.092317 -0.007105 -0.995704 
0.037339 -0.022713 0.021453 0.015494 0.022257 -0.999632 
0.037739 -0.027031 0.025539 0.089812 -0.035582 -0.995323 
0.037697 -0.026937 0.018560 0.037544 0.002420 -0.999292 
0.037686 -0.026745 0.017219 0.096790 0.042195 -0.994410 
0.037623 -0.027927 0.024987 0.071693 -0.089164 -0.993433 
0.024557 -0.107577 -0.031408 0.092287 -0.993105 -0.072287 
0.037421 -0.025217 0.029491 0.062306 -0.117320 -0.991138 
-0.000475 -0.103316 -0.001925 0.561989 -0.823528 0.077264 
0.008265 0.060442 -0.033297 -0.998036 -0.060344 0.016815 
0.010815 0.065409 -0.033798 -0.836244 -0.547432 0.031850 
-0.001036 -0.103006 -0.001943 0.566293 -0.469483 0.677420 
0.037475 -0.029175 0.029464 0.126348 0.054927 -0.990464 
0.007816 0.067787 -0.035595 -0.700278 -0.639857 0.316536 
0.037249 -0.022683 0.029797 0.103928 0.072380 -0.991948 
0.037444 -0.023212 0.028562 0.075865 0.157368 -0.984622 
0.006073 0.062403 -0.032924 -0.991233 -0.110221 0.072865 
0.037278 -0.029134 0.031088 0.183229 0.047532 -0.981920 
0.002641 0.062331 -0.032760 -0.981316 -0.146803 0.124367 
0.037256 -0.020568 0.031823 0.101084 -0.020797 -0.994660 
0.037135 -0.019011 0.032301 0.144438 0.037981 -0.988785 
0.037356 -0.020773 0.029760 0.094764 0.000683 -0.995499 
-0.001024 0.060540 -0.032912 -0.996092 -0.085663 -0.021492 
0.037285 -0.018216 0.030786 0.109922 0.014066 -0.993841 
0.037280 -0.017744 0.029252 0.108417 0.009487 -0.994060 
0.002445 -0.084549 -0.037746 -0.997415 0.047555 -0.053859 
0.002099 -0.085662 -0.037732 -0.998441 0.023240 -0.050746 
0.003476 -0.084958 -0.037743 -0.997590 0.043426 -0.054120 
0.037304 -0.027628 0.030176 0.150808 -0.009899 -0.988514 
0.037206 -0.030436 0.032058 0.179244 0.029910 -0.983350 
0.037031 -0.029138 0.032488 0.157677 0.020212 -0.987284 
0.007215 0.067616 -0.035032 -0.607405 -0.730394 0.312384 
0.037296 -0.033429 0.031572 0.164380 -0.055956 -0.984809 
0.032644 -0.029392 0.037305 0.998887 0.008258 0.046435 
0.037460 -0.034128 0.030707 0.207527 -0.086042 -0.974438 
0.037254 -0.027698 0.032355 0.165732 0.043902 -0.985193 
0.037255 -0.032276 0.032171 0.167400 0.051778 -0.984528 
0.037234 -0.040471 0.032158 0.202824 0.040819 -0.978364 
0.037350 -0.039181 0.031513 0.203979 0.000228 -0.978975 
0.036997 -0.039285 0.032992 0.258579 -0.000546 -0.965990 
0.036831 -0.039268 0.033920 0.271499 0.026066 -0.962086 
0.036795 -0.036343 0.034300 0.266717 0.006771 -0.963751 
0.037040 -0.027671 0.033093 0.207230 0.016234 -0.978158 
0.037393 -0.024696 0.031294 0.212780 -0.055971 -0.975496 
0.018782 -0.051628 -0.036437 -0.999787 0.018656 0.008830 
0.036957 -0.014430 0.033388 0.127552 0.096591 -0.987117 
0.037225 -0.015384 0.033353 0.119930 0.040116 -0.991972 
0.037106 -0.016486 0.032754 0.075746 -0.042407 -0.996225 
-0.000305 -0.045050 -0.035622 -0.995464 0.081923 -0.048382 
0.037125 -0.023091 0.031705 0.199884 0.089106 -0.975759 
0.037338 -0.023295 0.030970 0.164931 0.177843 -0.970139 
0.037224 -0.022183 0.031348 0.149292 -0.007034 -0.988768 
0.036974 -0.021779 0.032961 0.189824 -0.035612 -0.981172 
0.037129 -0.010119 0.029178 0.067046 0.007280 -0.997723 
0.037111 -0.016605 0.031698 0.126062 0.005322 -0.992008 
0.037165 -0.014996 0.032034 0.102833 0.018778 -0.994521 
0.037247 -0.016113 0.030790 0.137000 0.008168 -0.990537 
0.037346 -0.016840 0.028460 0.072494 0.041471 -0.996506 
0.037387 -0.026039 0.031089 0.151091 -0.061293 -0.986618 
0.037459 -0.025066 0.030532 0.087169 -0.084441 -0.992608 
0.037199 -0.027216 0.031656 0.131071 -0.003604 -0.991367 
0.037046 -0.026729 0.032544 0.182125 0.014545 -0.983168 
0.037448 -0.034967 0.029938 0.181046 -0.023437 -0.983195 
0.037125 -0.032835 0.034397 0.227592 -0.032327 -0.973220 
0.037320 -0.032958 0.032272 0.121467 -0.003029 -0.992591 
0.036877 -0.037980 0.033787 0.250971 0.003186 -0.967989 
0.036831 -0.035182 0.033814 0.189502 0.003434 -0.981874 
0.036888 -0.040546 0.034037 0.291411 0.073537 -0.953767 
0.036795 -0.034017 0.034334 0.241676 -0.144770 -0.959497 
0.036572 -0.039241 0.034820 0.333864 -0.019147 -0.942427 
0.036614 -0.038015 0.035196 0.394888 -0.005629 -0.918712 
0.036701 -0.041620 0.035034 0.446691 0.054309 -0.893039 
0.036703 -0.018048 0.034739 0.372772 -0.088690 -0.923675 
0.032307 -0.039317 0.037519 0.998531 0.053088 -0.010834 
0.025218 -0.020954 0.036666 0.989947 0.049462 0.132511 
0.022049 -0.020253 0.036199 0.975972 -0.114186 0.185582 
0.022943 -0.030238 0.036647 0.992214 0.046469 0.115549 
0.026765 -0.029523 0.036961 0.994625 -0.005159 0.103415 
0.020851 -0.026891 0.036422 0.991719 0.016040 0.127423 
0.021606 -0.028076 0.036516 0.992075 0.021012 0.123876 
0.028322 -0.028438 0.037082 0.991057 -0.026087 0.130861 
0.032553 -0.021249 0.037330 0.999929 -0.011804 -0.001694 
0.022617 -0.013986 0.036397 0.992206 -0.021901 0.122669 
0.025206 -0.011889 0.036607 0.990156 -0.034149 0.135739 
0.023642 -0.019458 0.036516 0.991117 0.006551 0.132829 
0.036387 -0.015171 0.035867 0.703284 -0.005610 -0.710887 
0.035552 -0.015810 0.036450 0.857891 -0.012898 -0.513671 
0.035068 -0.017131 0.036708 0.913300 -0.015997 -0.406973 
0.036369 -0.017872 0.035410 0.578466 -0.100875 -0.809445 
0.036294 -0.019011 0.035440 0.537709 -0.034047 -0.842443 
-0.004593 -0.042416 -0.035519 -0.996232 0.036535 -0.078661 
0.002691 -0.104019 -0.005311 0.304033 -0.928990 -0.211048 
-0.001623 -0.012956 -0.034205 -0.992647 0.092580 -0.077976 
0.036809 0.003223 0.033866 0.131777 0.046658 -0.990181 
0.026943 -0.004322 0.037080 0.975712 -0.027878 0.217275 
0.008625 0.009544 0.034661 0.992313 -0.018468 0.122370 
0.003140 0.020164 -0.033275 -0.997974 -0.062101 -0.013799 
0.029810 -0.008512 0.037194 0.989064 -0.089728 0.117056 
0.034021 -0.011729 0.037087 0.996058 0.038903 -0.079714 
0.023932 -0.004399 0.036611 0.966785 0.005940 0.255523 
0.030433 -0.013100 0.037076 0.992261 0.055003 0.111321 
0.024180 0.009617 0.036750 0.967048 -0.028898 0.252951 
0.027799 -0.011802 0.036793 0.991778 -0.019881 0.126416 
0.036559 0.007826 -0.019633 0.051485 -0.007757 -0.998644 
0.002591 0.099062 -0.031144 -0.095145 0.980191 0.173706 
0.019624 0.009030 -0.034696 -0.994645 0.094365 0.042159 
0.019136 0.008553 -0.034778 -0.992285 0.122145 0.021241 
0.023609 0.004432 0.036612 0.977593 -0.022241 0.209324 
0.008542 0.088949 -0.036233 -0.986121 0.165880 0.007058 
0.024896 -0.001795 0.036670 0.971338 -0.022533 0.236632 
0.022676 -0.000444 0.036244 0.982866 -0.006938 0.184191 
0.025331 0.002112 0.036762 0.981301 0.001244 0.192477 
0.022249 0.001999 0.036123 0.982793 0.029506 0.182338 
0.022141 -0.005850 0.036119 0.994266 -0.017068 0.105566 
0.025376 -0.003383 0.036789 0.972719 0.013845 0.231574 
0.008228 0.094285 -0.035616 -0.981242 0.175117 -0.080611 
0.022852 -0.003681 0.036190 0.978227 0.033015 0.204892 
0.023108 -0.010375 0.036311 0.951566 0.066764 0.300109 
0.025390 0.004492 0.036711 0.982104 -0.018609 0.187418 
0.027020 0.013410 -0.035517 -0.998813 -0.011005 0.047450 
0.024027 -0.000641 0.036622 0.972915 0.001403 0.231159 
0.022313 0.008823 0.036234 0.987598 0.008310 0.156785 
0.023186 0.008595 0.036425 0.955929 -0.002932 0.293582 
0.036429 0.012096 -0.012456 0.025216 0.199957 -0.979480 
0.025708 0.009888 0.037009 0.976893 -0.033604 0.211071 
0.006605 0.098617 -0.033726 -0.737255 0.581430 -0.344084 
0.010142 0.098221 -0.034911 -0.972680 0.231790 0.012933 
0.023378 0.002034 0.036570 0.968807 -0.004239 0.247780 
-0.039195 0.003938 -0.023543 0.043260 -0.032368 0.998539 
0.009181 0.098504 -0.034647 -0.891303 0.318821 0.322387 
0.027382 0.005099 0.037101 0.978622 -0.022597 0.204421 
0.022799 0.002792 0.036273 0.963546 -0.003585 0.267520 
0.010830 0.088748 -0.036501 -0.997499 0.055061 -0.044325 
0.038481 -0.056856 -0.005329 0.017704 0.029469 -0.999409 
0.006373 0.097986 -0.034115 -0.727611 0.548150 -0.412449 
0.038706 -0.057709 -0.004619 0.023341 0.234977 -0.971721 
0.007472 0.095723 -0.035253 -0.962926 0.259984 -0.071985 
0.008426 0.097145 -0.034827 -0.912306 0.400083 0.087354 
0.027762 0.009870 0.037361 0.982574 -0.049795 0.179080 
0.028680 0.007033 0.037322 0.987068 -0.031020 0.157270 
0.027269 -0.002329 0.037154 0.977519 0.010539 0.210585 
0.005346 0.099325 -0.033109 -0.308581 0.921870 0.234379 
0.007923 0.062117 -0.033020 -0.998436 0.048560 -0.027694 
0.005048 0.098141 -0.034514 -0.806162 0.587695 0.068680 
0.007247 0.097872 -0.034100 -0.765671 0.643228 -0.002120 
0.027422 0.003300 0.037094 0.978844 0.002074 0.204598 
0.009601 0.065087 -0.033633 -0.925509 -0.377900 -0.024969 
0.023428 0.012225 0.036702 0.952171 -0.000208 0.305565 
0.005903 0.097984 -0.034574 -0.734489 0.586457 -0.341458 
-0.038190 -0.031852 0.037090 0.217803 0.024792 0.975678 
0.032417 -0.011601 0.037103 0.998034 0.022763 0.058395 
0.032138 0.005714 0.037489 0.999728 -0.023135 0.002940 
0.036921 0.002602 0.032940 0.089331 0.063948 -0.993947 
0.005956 0.098512 -0.034331 -0.763070 0.544813 -0.347712 
0.038048 -0.035015 -0.004729 -0.034716 -0.006179 -0.999378 
0.005614 0.097551 -0.035060 -0.870538 0.488016 -0.063276 
0.012919 -0.104161 -0.010180 -0.150774 -0.970893 0.186105 
0.036031 0.006507 0.035867 0.676964 -0.097435 -0.729538 
0.002618 0.097959 -0.034516 -0.728735 0.647764 0.222143 
0.036918 0.010331 0.028774 0.065953 0.001430 -0.997822 
0.035963 0.010861 0.036187 0.676600 0.010142 -0.736281 
0.036679 0.005824 0.028952 0.051557 -0.056032 -0.997097 
0.037052 0.003825 0.028330 0.052335 0.049522 -0.997401 
0.036963 0.003763 0.029862 0.073700 0.028194 -0.996882 
0.036964 0.006933 0.028127 0.181683 -0.098522 -0.978409 
0.036925 0.007224 0.029139 -0.006387 -0.036502 -0.999313 
0.036889 0.008216 0.029511 0.017797 0.079404 -0.996684 
0.036905 0.008384 0.026887 0.033656 0.123323 -0.991796 
0.036901 0.004591 0.030329 0.078163 0.257062 -0.963229 
0.036667 0.005180 0.030022 0.113195 0.144612 -0.982992 
0.036759 0.009774 0.032001 0.041176 0.030683 -0.998681 
0.005027 0.095763 -0.035463 -0.911394 0.403677 -0.080033 
0.036809 0.009139 0.032294 0.128734 0.006458 -0.991658 
0.036845 0.006287 0.032194 0.055644 -0.167760 -0.984256 
0.037446 -0.101910 0.005892 0.149584 0.138601 -0.978986 
0.037138 0.000682 0.028082 0.029002 0.093234 -0.995222 
0.036612 0.009624 0.030317 0.103868 0.099863 -0.989565 
0.036842 0.011500 0.029590 0.071220 0.066839 -0.995219 
0.036765 0.009744 0.029462 0.179512 -0.024363 -0.983454 
0.011710 0.098598 -0.034905 -0.936792 0.334347 0.103113 
0.036823 0.009145 0.029707 0.103715 0.144040 -0.984122 
0.003858 0.098124 -0.034475 -0.707263 0.706937 0.004316 
-0.001364 0.096257 -0.034796 -0.639784 0.760023 0.114198 
0.001513 0.096564 -0.035054 -0.746811 0.649786 0.141604 
0.005335 0.096843 -0.035222 -0.945032 0.254121 0.205761 
0.036729 0.008479 0.032475 0.103595 0.096266 -0.989950 
0.036724 0.010460 0.030344 0.106375 -0.119977 -0.987061 
0.037113 0.007601 0.027514 0.194001 0.133848 -0.971827 
0.036862 0.007934 0.028301 0.103811 0.066629 -0.992363 
0.036812 0.011280 0.031369 0.056655 0.066060 -0.996206 
0.037053 0.002759 0.028405 0.069438 0.064606 -0.995492 
0.037004 0.002082 0.031722 0.039566 0.080231 -0.995991 
0.036931 0.002639 0.030166 0.082456 0.063825 -0.994549 
0.037122 0.002144 0.029236 0.103569 0.093385 -0.990229 
0.037134 -0.001135 0.029890 0.091085 -0.218941 -0.971478 
0.037299 -0.000616 0.030750 0.082987 0.014089 -0.996451 
0.037263 -0.003387 0.028120 0.054675 0.031922 -0.997994 
0.037174 -0.004787 0.029060 0.050429 0.008993 -0.998687 
0.037234 -0.010371 0.027575 0.033767 0.006508 -0.999409 
0.037245 -0.011588 0.028476 0.043072 0.008923 -0.999032 
0.028181 -0.009335 -0.036246 -0.990259 0.110366 0.084895 
-0.006206 0.092790 -0.036009 -0.951939 0.306287 0.000635 
0.037263 -0.006000 0.030307 0.083659 -0.019033 -0.996313 
0.037118 -0.004571 0.031441 0.082545 0.000144 -0.996587 
0.037132 -0.001755 0.031712 0.093737 0.087050 -0.991784 
0.037100 -0.001526 0.030837 0.075749 -0.053988 -0.995664 
0.037071 -0.007921 0.031796 0.059217 0.058413 -0.996535 
0.018684 -0.103914 0.038188 0.988667 -0.128751 0.077202 
0.037183 -0.008576 0.032705 0.087255 0.013288 -0.996097 
0.037231 -0.009036 0.031690 0.074752 -0.000135 -0.997202 
0.037085 -0.009757 0.032641 0.129601 -0.052800 -0.990159 
0.032553 -0.107007 -0.026203 -0.110994 -0.986763 0.118236 
-0.005938 0.093198 -0.035762 -0.928367 0.371067 -0.021068 
0.038260 -0.044883 -0.012938 -0.004099 -0.083070 -0.996535 
0.038032 -0.045946 -0.013833 -0.015300 -0.134366 -0.990814 
0.037004 -0.001298 0.032073 0.065819 -0.127576 -0.989643 
-0.023047 -0.105322 -0.008251 -0.011659 -0.983422 -0.180959 
0.036310 -0.010189 0.035596 0.588426 -0.008750 -0.808504 
0.005956 -0.050081 -0.035918 -0.997810 0.063505 -0.018489 
-0.008888 0.094481 -0.034671 -0.481929 0.869220 0.110460 
0.004428 -0.050726 -0.035792 -0.998973 0.039353 -0.022452 
-0.012229 -0.102154 0.007879 0.031298 -0.952861 -0.301787 
0.035558 -0.004099 0.036310 0.803946 0.035100 -0.593666 
0.035533 -0.005354 0.036511 0.815606 0.019262 -0.578287 
0.000642 -0.103835 -0.003425 0.381692 -0.897708 -0.220072 
0.035953 -0.008217 0.035971 0.733788 -0.013546 -0.679243 
0.038043 -0.045200 0.015193 0.114808 0.125318 -0.985451 
-0.002471 0.095864 -0.034871 -0.713607 0.674046 0.190860 
0.038188 -0.045625 0.014733 0.084577 0.060694 -0.994567 
0.035685 -0.003312 0.036210 0.831303 -0.030802 -0.554965 
0.037068 -0.003725 0.033343 0.100189 -0.001649 -0.994967 
0.037071 -0.002807 0.034253 0.194382 0.015312 -0.980806 
0.037017 -0.002860 0.033168 0.082006 0.022790 -0.996371 
0.037263 -0.000839 0.031749 0.105310 -0.115583 -0.987700 
-0.014912 0.092691 -0.034920 -0.632170 0.753331 0.181256 
0.037150 -0.003083 0.032143 0.099563 0.012383 -0.994954 
0.037115 -0.002238 0.031458 0.080575 0.037531 -0.996042 
0.008734 -0.107673 -0.030072 0.182664 -0.980585 -0.071323 
0.036951 0.003193 0.031504 0.042099 -0.005016 -0.999101 
0.037173 -0.000801 0.033059 0.094332 -0.018031 -0.995377 
0.037082 -0.000132 0.032122 0.085092 0.141929 -0.986213 
0.037105 0.001767 0.032802 0.072618 0.070060 -0.994896 
-0.017901 0.090845 -0.035837 -0.758932 0.618043 0.205048 
0.037050 0.000998 0.032279 0.059519 -0.001635 -0.998226 
0.036769 0.010497 0.031546 0.009554 -0.081151 -0.996656 
0.036626 0.009832 0.031072 -0.025607 0.015676 -0.999549 
0.032243 0.011067 0.037542 0.997924 -0.039254 -0.051064 
0.036960 0.004297 0.031448 0.063064 0.182732 -0.981138 
-0.039315 -0.005811 0.035893 0.018957 0.023011 0.999555 
0.036779 0.010849 0.032609 0.103400 0.020580 -0.994427 
0.034343 0.004007 0.037059 0.958213 -0.048905 -0.281844 
0.032862 0.003412 0.037309 0.996785 -0.026305 -0.075679 
-0.011185 0.092937 -0.035494 -0.937359 0.342183 0.065340 
0.030259 0.009809 0.037594 0.996036 -0.048875 0.074321 
-0.015934 0.092404 -0.035037 -0.578695 0.781454 0.233326 
-0.012176 0.093772 -0.034649 -0.452375 0.858412 0.241838 
0.033039 0.007965 0.037400 0.995905 -0.003598 -0.090336 
0.034450 -0.002711 -0.036095 -0.962851 -0.002506 -0.270022 
0.032061 0.009348 0.037502 0.999616 -0.019430 -0.019746 
0.034480 0.007261 0.037091 0.947355 0.018493 -0.319651 
0.035160 0.009028 0.036707 0.875632 -0.017591 -0.482658 
0.035553 0.007375 0.036436 0.813275 -0.014258 -0.581705 
-0.023549 0.089542 -0.036255 -0.667600 0.743179 0.044667 
0.035458 0.003809 0.036476 0.837351 0.014252 -0.546480 
-0.025298 0.091848 -0.033412 -0.488595 0.872383 0.014957 
0.035498 -0.002421 0.036382 0.853911 0.014664 -0.520213 
0.033727 -0.014854 0.037140 0.997641 0.007138 -0.068279 
0.035798 -0.019988 0.036154 0.701480 -0.009167 -0.712631 
0.034843 -0.015507 0.036831 0.943373 -0.005865 -0.331681 
0.027137 -0.107414 0.011251 -0.011773 -0.999479 -0.030066 
0.031493 -0.008725 0.037210 0.993956 -0.097349 0.050737 
0.032209 -0.015813 0.037220 0.997864 0.035699 0.054701 
0.031560 -0.010201 0.037106 0.996856 -0.041106 0.067740 
0.030134 -0.011777 0.036986 0.993600 0.000274 0.112952 
0.033170 -0.009371 0.037095 0.997664 -0.052668 -0.043507 
0.032840 -0.017287 0.037265 0.999767 0.020243 -0.007442 
-0.030543 0.090219 -0.034582 -0.855747 0.452345 0.251157 
-0.029077 0.090733 -0.034731 -0.899703 0.436300 0.013298 
0.034662 -0.014352 0.036948 0.949648 0.007740 -0.313222 
0.033340 -0.016114 0.037167 0.998830 0.017286 -0.045168 
0.031739 -0.014082 0.037166 0.997708 0.019122 0.064901 
0.031647 -0.004364 0.037568 0.999306 -0.022094 0.029970 
-0.031084 0.085896 -0.035530 -0.900428 -0.400269 0.170333 
-0.030027 0.090933 -0.034464 -0.635958 0.732058 0.244230 
0.034986 -0.001330 0.036638 0.910552 0.015845 -0.413090 
-0.028118 0.091594 -0.033621 -0.341161 0.925535 0.164301 
0.033832 -0.001778 0.037120 0.956925 0.032330 -0.288530 
-0.027252 0.091307 -0.034295 -0.671535 0.739658 -0.044120 
0.035001 -0.002876 0.036653 0.903352 0.011615 -0.428743 
0.032453 -0.001638 0.037529 0.995789 0.020194 -0.089418 
0.033419 -0.003605 0.037313 0.977947 0.023034 -0.207580 
-0.028155 0.091060 -0.034546 -0.767613 0.640295 -0.028132 
0.034183 -0.006456 0.037045 0.969424 -0.052851 -0.239632 
0.030695 -0.005741 0.037499 0.992763 -0.069546 0.097899 
0.032676 -0.006564 0.037414 0.995607 -0.076474 -0.054020 
0.030886 -0.007351 0.037356 0.992306 -0.089472 0.085572 
0.034113 -0.016428 0.037053 0.982352 -0.004628 -0.186985 
0.035347 -0.013918 0.036511 0.869595 0.005490 -0.493736 
0.035783 -0.021842 0.036134 0.718759 0.039807 -0.694119 
0.033508 0.005701 0.037358 0.992123 -0.022373 -0.123250 
0.037853 -0.030461 -0.006778 -0.022574 0.028014 -0.999353 
0.034684 -0.003883 0.036896 0.917250 0.057142 -0.394192 
0.030428 0.005525 0.037437 0.995116 -0.007679 0.098418 
0.037097 -0.003623 -0.012017 0.010141 -0.068250 -0.997617 
0.037092 -0.002726 -0.012121 0.019767 0.084637 -0.996216 
-0.026433 0.061625 -0.035024 -0.840946 0.493885 -0.221108 
0.030857 0.012099 0.037724 0.998843 -0.038469 0.028844 
0.030218 0.004096 0.037453 0.995559 0.005349 0.093986 
0.031525 0.001855 0.037432 0.999355 0.033849 -0.011999 
0.031235 0.003859 0.037439 0.999579 -0.014780 0.024955 
0.036809 0.004462 -0.012064 0.021740 0.013088 -0.999678 
0.029015 0.004520 0.037332 0.986307 -0.001547 0.164915 
-0.029783 0.088901 -0.035836 -0.899346 0.428763 -0.085671 
0.036650 0.008469 -0.021459 0.095011 -0.025581 -0.995147 
0.028149 -0.000603 0.037257 0.980223 0.015132 0.197317 
-0.024252 0.012080 0.036741 0.997511 -0.037511 -0.059707 
-0.025976 0.061914 -0.034735 -0.903655 0.326985 -0.276566 
0.029348 0.000373 0.037399 0.984527 0.015880 0.174513 
0.032142 -0.003133 0.037539 0.999322 0.011385 -0.035008 
0.026411 0.006228 0.037009 0.979627 -0.041867 0.196411 
0.028938 -0.004522 0.037399 0.984187 -0.030923 0.174413 
0.027657 0.001215 0.037140 0.979593 0.010688 0.200706 
0.030474 -0.004083 0.037531 0.993891 -0.019758 0.108584 
0.025823 -0.000157 0.036834 0.976906 0.013244 0.213256 
0.023868 0.003311 0.036538 0.976561 0.000675 0.215237 
-0.032703 0.061750 -0.036252 -0.954154 0.236855 -0.183003 
0.023934 0.005375 0.036611 0.979623 -0.001962 0.200834 
0.032690 0.026287 -0.035920 -0.994612 0.000465 -0.103666 
0.032476 -0.003479 -0.036324 -0.996827 0.016604 -0.077850 
0.022275 0.012511 0.036268 0.974903 -0.058419 0.214828 
-0.031796 0.061354 -0.036298 -0.937376 0.287022 -0.197344 
-0.011011 0.033709 0.034635 0.999334 0.005901 -0.036011 
-0.029503 0.061396 -0.035836 -0.889588 0.397323 -0.225315 
-0.030589 0.061875 -0.035773 -0.930425 0.264145 -0.254042 
-0.030665 0.060771 -0.036341 -0.955718 0.208334 -0.207846 
-0.029623 0.060402 -0.036165 -0.964037 0.100333 -0.246100 
0.023799 -0.002879 0.036411 0.966664 0.012561 0.255738 
-0.024685 0.062162 -0.034217 -0.928903 0.264009 -0.259689 
0.022627 0.001354 0.036279 0.973708 0.027661 0.226113 
0.030769 0.014871 -0.035978 -0.999517 -0.002965 0.030920 
0.023358 0.006233 0.036498 0.951878 -0.080401 0.295744 
0.024701 0.006497 0.036736 0.983088 -0.062974 0.171963 
0.026875 -0.007036 0.036953 0.984496 -0.030844 0.172673 
0.035936 -0.084039 -0.036408 -0.653145 -0.009592 -0.757173 
0.025096 -0.015546 0.036487 0.984984 0.030911 0.169857 
0.024334 -0.016480 0.036489 0.990766 0.048027 0.126789 
0.023120 -0.012385 0.036417 0.990063 -0.008693 0.140357 
0.023633 -0.010926 0.036495 0.980609 -0.000384 0.195973 
-0.024300 0.059897 -0.034725 -0.959171 -0.004677 -0.282789 
0.024242 -0.014379 0.036364 0.991874 -0.020805 0.125512 
0.025018 -0.007476 0.036738 0.979828 -0.027781 0.197903 
0.024689 -0.009601 0.036606 0.984327 -0.000960 0.176350 
0.036652 -0.005005 -0.019536 0.015210 0.101925 -0.994676 
0.030154 -0.015706 0.037106 0.988599 0.006204 0.150446 
0.028814 -0.007005 0.037208 0.984822 -0.066138 0.160472 
0.029012 -0.015388 0.036934 0.972896 -0.067457 0.221183 
0.028819 -0.015949 0.036874 0.982987 0.060311 0.173491 
0.036699 0.005002 -0.022277 0.046974 -0.059683 -0.997112 
0.029720 -0.010060 0.037035 0.991838 -0.065070 0.109650 
0.036840 -0.006799 -0.026191 0.052643 -0.132456 -0.989790 
0.030656 -0.025024 0.037340 0.996982 -0.012009 0.076693 
0.029678 -0.014501 0.037126 0.987097 0.006167 0.160004 
0.035972 0.010451 -0.034431 -0.416588 0.084262 -0.905182 
0.036819 0.014573 -0.015070 -0.018067 0.079093 -0.996704 
0.028184 -0.030354 0.036969 0.991783 -0.024476 0.125566 
0.029988 -0.029487 0.037181 0.990500 -0.012657 0.136926 
0.028325 -0.021244 0.036880 0.979983 0.051676 0.192260 
0.030017 -0.020192 0.037196 0.973561 0.078479 0.214521 
0.027071 -0.022688 0.036937 0.986329 0.089651 0.138267 
0.026584 -0.021108 0.036640 0.992010 0.060148 0.110894 
0.025539 -0.022582 0.036839 0.989765 0.057880 0.130441 
0.036686 0.011302 -0.024728 0.024836 -0.078994 -0.996566 
0.025321 -0.030884 0.036872 0.992903 0.058888 0.103326 
0.024187 -0.018013 0.036479 0.990757 0.006437 0.135498 
0.025498 -0.019172 0.036619 0.989843 0.011584 0.141694 
0.025440 -0.032109 0.037009 0.994060 -0.060651 0.090368 
0.026487 -0.032600 0.036898 0.994279 -0.095058 0.048722 
0.024347 -0.024617 0.036718 0.988990 0.016930 0.147009 
0.024165 -0.020516 0.036451 0.988946 0.026996 0.145796 
0.025027 -0.029120 0.036828 0.991905 0.016639 0.125885 
0.025191 -0.036971 0.036994 0.996053 0.031856 0.082844 
0.026737 -0.036233 0.037108 0.994281 0.047244 0.095780 
0.024184 -0.035985 0.036973 0.997729 0.030795 0.059896 
0.036766 -0.000894 -0.018676 0.041149 0.004379 -0.999143 
0.023625 -0.034292 0.036888 0.990426 0.098824 0.096388 
0.023502 -0.035055 0.036875 0.993994 0.069685 0.084375 
0.023725 -0.033451 0.036726 0.997118 0.010655 0.075118 
0.025435 -0.035896 0.036979 0.996041 0.051406 0.072529 
0.036263 -0.039124 0.035730 0.543537 -0.053852 -0.837656 
0.035649 -0.039849 0.036432 0.773318 -0.022996 -0.633602 
0.007139 0.012263 -0.033585 -0.998191 0.057768 0.016644 
-0.029530 -0.064014 -0.038157 -0.977463 0.091955 -0.190025 
0.026407 -0.033719 0.036867 0.995158 0.055091 0.081402 
0.025015 -0.034579 0.036946 0.995520 0.068410 0.065275 
0.027820 -0.033037 0.036886 0.987278 0.036569 0.154742 
0.026592 -0.038720 0.037197 0.993378 0.064148 0.095312 
0.029998 -0.037881 0.037325 0.988425 0.052266 0.142423 
0.030375 -0.040214 0.037603 0.993170 0.067269 0.095333 
0.031410 -0.020173 0.037436 0.996675 -0.012583 0.080504 
0.034326 -0.032607 0.037098 0.987869 0.010793 -0.154914 
0.033316 -0.038297 0.037393 0.997351 0.020346 -0.069835 
0.029871 -0.032052 0.037154 0.989106 0.019155 0.145956 
0.030045 -0.034705 0.037270 0.996169 -0.003893 0.087364 
-0.020585 0.061996 -0.033396 -0.937988 0.225558 -0.263253 
0.032004 -0.023296 0.037330 0.999516 -0.004369 0.030799 
-0.017389 0.062874 -0.033007 -0.970324 -0.167799 -0.174111 
0.029267 -0.035442 0.037243 0.988336 0.036595 0.147828 
0.029388 -0.036649 0.037356 0.993112 0.001734 0.117159 
0.030443 -0.033874 0.037296 0.996908 0.034439 0.070629 
-0.003985 0.073130 -0.034511 -0.392193 -0.883375 0.256579 
0.033427 -0.023003 0.037267 0.997273 -0.000087 -0.073799 
0.031915 -0.027125 0.037253 0.998359 -0.004545 0.057091 
0.020907 -0.106357 -0.023127 0.282447 -0.943385 -0.173919 
-0.003363 0.061781 -0.032585 -0.932030 0.362245 -0.009900 
0.021732 -0.106352 -0.024034 0.314209 -0.915766 -0.250290 
0.030491 -0.022165 0.037305 0.990469 0.009013 0.137438 
0.031410 -0.028716 0.037274 0.996496 0.013131 0.082605 
0.017522 -0.107650 -0.029447 0.005202 -0.999030 0.043722 
0.017404 -0.107559 -0.030216 0.115878 -0.993063 0.019967 
0.033984 -0.029992 0.037280 0.990210 -0.018320 -0.138380 
0.035330 -0.028903 0.036745 0.863916 0.006110 -0.503599 
0.033340 -0.027830 0.037307 0.999608 0.011366 0.025572 
0.035121 -0.026172 0.036826 0.885199 0.011308 -0.465075 
0.035903 -0.017671 0.036051 0.740031 -0.047992 -0.670858 
0.034307 -0.027296 0.037204 0.979492 0.008849 -0.201290 
0.034390 -0.025632 0.037146 0.983396 0.011939 -0.181082 
0.035448 -0.034555 0.036652 0.838326 -0.057213 -0.542159 
-0.020129 0.059222 -0.033805 -0.954004 0.067345 -0.292131 
0.035898 -0.036078 0.036177 0.694475 -0.017411 -0.719306 
0.033617 -0.045174 0.037419 0.978314 0.023849 -0.205752 
-0.022144 0.059771 -0.034132 -0.965561 0.015766 -0.259698 
0.034358 -0.034936 0.037233 0.976144 0.011879 -0.216797 
0.034507 -0.044391 0.037106 0.912645 0.016625 -0.408415 
-0.019108 0.058382 -0.033638 -0.967008 0.108316 -0.230572 
-0.011159 0.059612 -0.032788 -0.994614 0.026384 -0.100237 
0.035246 -0.037118 0.036720 0.858666 -0.002383 -0.512530 
0.036034 -0.037742 0.036068 0.676492 0.017014 -0.736253 
0.019215 -0.080250 0.038087 0.996649 0.078789 0.021980 
0.032754 -0.045177 0.037601 0.997024 0.016563 -0.075291 
0.034031 -0.056684 0.037057 0.998987 -0.037168 -0.025379 
-0.005525 0.060349 -0.032671 -0.977329 -0.196657 -0.078450 
0.034481 -0.048888 0.037232 0.952286 -0.010904 -0.305012 
-0.006393 0.059971 -0.032604 -0.994684 -0.039925 -0.094917 
0.032019 -0.043478 0.037661 0.999785 0.007973 -0.019130 
0.030812 -0.050354 0.037650 0.998809 -0.035304 0.033689 
0.032379 -0.049109 0.037629 0.999151 -0.019147 -0.036470 
-0.016407 0.060394 -0.033295 -0.977990 0.066473 -0.197780 
-0.000541 0.063232 -0.032723 -0.973772 -0.223609 -0.042034 
0.033342 -0.050160 0.037496 0.988078 -0.033902 -0.150176 
-0.006498 0.060721 -0.032810 -0.997828 -0.037699 -0.054027 
0.014931 -0.079889 0.038080 0.994622 0.074818 0.071617 
-0.009100 0.061042 -0.032780 -0.985414 0.147780 -0.084376 
-0.007665 0.060071 -0.032680 -0.998051 -0.031947 -0.053610 
-0.014464 0.061565 -0.032663 -0.973112 0.217952 -0.074493 
0.033943 -0.046185 0.037387 0.968034 0.018867 -0.250107 
0.033647 -0.048084 0.037462 0.982742 -0.011415 -0.184630 
0.035161 -0.045528 0.036743 0.839540 0.045114 -0.541422 
0.032180 -0.051328 0.037620 0.998804 -0.039459 -0.028859 
0.031076 -0.047218 0.037752 0.999557 0.005923 0.029173 
-0.009977 0.061799 -0.032388 -0.975246 0.204587 -0.083905 
0.032623 -0.053220 0.037452 0.995105 -0.074802 -0.064576 
0.033276 -0.051733 0.037401 0.988733 -0.041298 -0.143880 
0.030868 -0.042334 0.037693 0.998545 0.011557 0.052677 
0.038105 -0.046468 0.017988 0.062842 0.001559 -0.998022 
0.017668 -0.003666 0.035732 0.986490 0.010661 0.163475 
0.017994 -0.004844 0.035692 0.983435 -0.023035 0.179793 
-0.017377 -0.015664 0.036291 0.999593 0.018614 -0.021606 
0.036699 0.011302 -0.011529 -0.007229 0.069131 -0.997581 
0.030763 -0.069687 0.037389 0.996889 0.005889 -0.078595 
0.030590 -0.068816 0.037517 0.996214 -0.037212 -0.078572 
0.031259 -0.067607 0.037404 0.995932 -0.010482 -0.089492 
0.036162 0.082260 0.013101 0.004693 -0.171717 -0.985135 
-0.011414 0.062651 -0.032420 -0.995779 0.014513 -0.090635 
0.020725 -0.046390 0.037590 0.997369 -0.003580 0.072408 
-0.015927 0.061384 -0.032858 -0.935227 0.319547 -0.152450 
-0.027439 0.092069 -0.032069 -0.158299 0.965074 0.208740 
-0.027257 0.092033 -0.032779 -0.251346 0.952300 0.173062 
-0.020523 0.061152 -0.033899 -0.948551 0.229749 -0.217870 
-0.029906 -0.105673 0.031710 -0.226058 -0.938138 0.262289 
-0.038935 0.031012 0.031688 0.014478 0.082365 0.996497 
-0.003071 -0.106821 0.019441 -0.140144 -0.986771 -0.081501 
-0.032085 -0.106776 0.017927 0.015245 -0.944233 0.328924 
-0.031561 -0.107194 0.017075 0.011701 -0.976322 0.216004 
-0.003580 -0.056243 0.037775 0.998556 0.016392 0.051158 
0.033180 -0.064598 0.037148 0.992035 0.009802 -0.125582 
0.009531 0.021709 0.034764 0.990709 0.034801 0.131474 
0.008931 0.021093 0.034537 0.982351 -0.048440 0.180668 
0.002195 0.062024 -0.032607 -0.993599 0.112742 0.007110 
-0.026190 -0.068106 0.037465 0.999440 -0.032465 0.008058 
0.033198 -0.062124 0.037000 0.993772 0.023291 -0.108970 
-0.016761 -0.013803 0.035875 0.991085 0.124914 -0.046339 
-0.007586 0.061122 -0.032795 -0.981802 0.187983 -0.026965 
0.036524 -0.067441 0.034238 0.339132 -0.039557 -0.939907 
-0.015720 0.062285 -0.032706 -0.991392 -0.068333 -0.111682 
0.036044 -0.067274 0.035509 0.503163 -0.013797 -0.864081 
0.029778 -0.107745 0.016725 0.016427 -0.995833 0.089707 
0.035749 -0.045902 0.036221 0.683341 0.032522 -0.729375 
0.036310 -0.044562 0.035400 0.594430 -0.003133 -0.804141 
0.036238 -0.049801 0.035728 0.558457 0.037637 -0.828680 
-0.033138 0.004061 0.037186 0.995932 -0.066400 0.060912 
-0.010208 -0.102780 0.009760 -0.847237 0.082367 0.524791 
-0.010021 -0.102044 0.009962 -0.852062 -0.026001 0.522794 
-0.010626 -0.102535 0.010244 -0.745154 0.032665 0.666092 
0.036692 -0.045549 0.034963 0.501549 0.008978 -0.865083 
0.036716 -0.046504 0.034655 0.415421 -0.054890 -0.907972 
0.037128 -0.049544 0.033020 0.211992 -0.007476 -0.977243 
0.037223 -0.044171 0.032424 0.176356 0.019371 -0.984136 
0.037370 -0.044111 0.031206 0.158961 0.006872 -0.987261 
0.037344 -0.048960 0.031668 0.201198 -0.032146 -0.979023 
-0.031943 0.091018 -0.030773 -0.061549 0.958551 0.278194 
0.037508 -0.045625 0.030462 0.172334 0.029423 -0.984599 
0.037609 -0.048326 0.030527 0.145254 -0.072100 -0.986764 
0.037464 -0.047969 0.031243 0.234718 0.003129 -0.972058 
0.037616 -0.047496 0.030455 0.142082 0.065618 -0.987678 
0.037348 -0.059605 0.033451 0.343804 -0.057876 -0.937256 
0.037369 -0.055093 0.032261 0.202543 0.113654 -0.972656 
0.036223 -0.070021 0.034922 0.352538 -0.029120 -0.935344 
0.035819 -0.069269 0.035880 0.548978 0.008741 -0.835791 
0.037698 -0.057431 0.032412 0.265329 0.037009 -0.963447 
0.036976 -0.054777 0.033648 0.253529 0.096502 -0.962502 
-0.032213 0.091162 -0.029272 0.004073 0.950640 0.310269 
0.037629 -0.055227 0.030143 0.146129 0.147987 -0.978134 
0.037519 -0.054309 0.030801 0.175134 0.047402 -0.983403 
0.037455 -0.051878 0.031560 0.178511 -0.006084 -0.983919 
-0.029316 0.091526 -0.032698 -0.201356 0.960088 0.194129 
-0.031197 0.091426 -0.025914 0.022976 0.950909 0.308616 
-0.032777 0.090827 -0.031249 -0.072869 0.964466 0.253960 
0.037406 -0.053379 0.031177 0.164178 0.009381 -0.986386 
0.037906 -0.059999 0.031073 0.225895 -0.054954 -0.972600 
0.038048 -0.058146 0.030464 0.196789 -0.002336 -0.980443 
0.038087 -0.056889 0.029927 0.164133 0.127802 -0.978124 
-0.029889 0.091529 -0.031535 -0.103760 0.973217 0.205140 
-0.029340 0.091950 -0.027074 -0.043542 0.973929 0.222637 
0.038408 -0.058646 0.027713 0.155180 0.013396 -0.987795 
0.037642 -0.053485 0.029556 0.158968 0.030024 -0.986827 
0.037111 -0.051884 0.033332 0.238122 0.043054 -0.970280 
-0.029343 0.091202 -0.033611 -0.269901 0.947619 0.170799 
0.036853 -0.051594 0.034344 0.274792 0.089693 -0.957311 
0.037729 -0.042823 0.028776 0.169048 -0.020356 -0.985398 
0.037493 -0.044320 0.029679 0.177229 0.009913 -0.984120 
-0.027342 0.092216 -0.027618 -0.013753 0.985913 0.166691 
0.037243 -0.042924 0.031853 0.168555 -0.017150 -0.985543 
0.037520 -0.049157 0.030244 0.157817 -0.018620 -0.987293 
-0.030938 0.091548 -0.024408 -0.028075 0.953788 0.299167 
0.035935 -0.047796 0.036052 0.619425 0.025035 -0.784656 
0.037448 -0.042876 0.030303 0.191877 -0.023347 -0.981141 
-0.030215 0.091691 -0.026607 -0.019919 0.970792 0.239094 
0.036315 -0.046371 0.035436 0.578557 -0.012627 -0.815544 
0.036196 -0.051600 0.035949 0.615240 0.036487 -0.787495 
0.036951 -0.050727 0.033886 0.261895 -0.012558 -0.965015 
0.035466 -0.065700 0.036413 0.767725 -0.019601 -0.640479 
0.035981 -0.064560 0.035657 0.550213 -0.034738 -0.834302 
0.036644 -0.051090 0.034998 0.400817 0.052358 -0.914661 
0.000784 0.031976 0.034307 0.997298 0.018014 0.071223 
0.036905 -0.052609 0.034819 0.359049 0.002817 -0.933314 
0.028354 -0.043589 0.037577 0.994957 0.019792 0.098334 
0.023600 -0.051170 0.037716 0.998126 0.037484 0.048366 
0.035130 0.055879 0.036703 0.461572 -0.029482 -0.886613 
-0.000868 0.101720 0.001830 0.026629 0.243286 -0.969589 
0.028731 -0.067711 0.037707 0.999800 0.000307 -0.020006 
0.029507 -0.044736 0.037659 0.996339 0.013113 0.084480 
0.029538 -0.042666 0.037655 0.993673 0.026681 0.109100 
0.026846 -0.044566 0.037509 0.992344 0.036228 0.118076 
0.006299 0.097905 0.036957 0.555176 0.801998 0.220406 
0.027300 -0.043452 0.037563 0.991571 0.040351 0.123120 
-0.008746 0.099594 -0.012802 -0.822323 0.093785 -0.561239 
0.024023 -0.055433 0.037712 0.996381 -0.003558 0.084922 
0.026374 -0.057195 0.037761 0.999683 0.009717 0.023209 
0.026226 -0.050932 0.037706 0.996482 0.021952 0.080876 
0.022516 -0.066486 0.037959 0.999456 -0.008220 0.031927 
0.021749 -0.050786 0.037535 0.994472 0.048509 0.093125 
-0.027771 0.092189 -0.023160 0.006866 0.987029 0.160394 
0.025177 -0.055075 0.037867 0.999273 0.012894 0.035882 
0.025826 -0.055823 0.037769 0.999644 -0.008483 -0.025279 
-0.001354 0.097189 0.035787 0.375713 0.896640 0.234256 
0.022244 0.083046 0.038177 0.951020 -0.263974 -0.160868 
0.024654 -0.069820 0.037929 0.999923 0.012100 0.002926 
0.035872 0.098214 0.032044 0.116071 0.256069 -0.959665 
0.035759 0.098852 0.031435 0.067991 0.122666 -0.990116 
-0.029555 0.091979 -0.023227 -0.020903 0.979408 0.200804 
0.035967 0.097934 0.031529 0.000346 0.010664 -0.999943 
0.022883 -0.052299 0.037670 0.997362 0.028268 0.066851 
-0.027127 0.092349 -0.024780 -0.003687 0.987379 0.158332 
0.036713 0.008032 0.015529 0.074608 0.179349 -0.980952 
0.014711 0.101771 0.022043 0.059625 0.781419 -0.621152 
0.026201 -0.042938 0.037387 0.989801 0.071000 0.123499 
0.016083 -0.007743 0.035650 0.987081 -0.054185 0.150782 
0.034019 0.096763 0.037707 0.838467 -0.034809 -0.543839 
-0.026060 0.092286 -0.019624 0.001395 0.984834 0.173494 
-0.028945 0.091935 -0.019010 0.022688 0.986612 0.161497 
0.024941 -0.056364 0.037784 0.997504 -0.033222 0.062302 
0.025095 -0.051198 0.037574 0.997731 0.025897 0.062150 
0.025593 -0.050143 0.037666 0.996266 0.053082 0.068085 
0.035982 0.052262 0.013660 0.133988 -0.323451 -0.936710 
0.035820 0.051952 0.014290 0.042123 -0.105776 -0.993497 
0.036135 0.052535 0.014193 0.097236 -0.292836 -0.951206 
0.029245 -0.048440 0.037701 0.996076 -0.005357 0.088345 
0.027831 -0.048307 0.037673 0.995645 -0.036005 0.085987 
0.023234 -0.068844 0.038041 0.999753 0.020058 0.009520 
0.035940 0.050763 0.014605 0.044373 0.031317 -0.998524 
0.029733 -0.049489 0.037754 0.996708 -0.038508 0.071344 
0.028580 -0.047116 0.037666 0.997139 0.017819 0.073459 
