0.005975 0.063186 0.007870 0.227452 0.971675 -0.064143 
-0.001638 0.063073 0.012889 0.072882 0.997280 0.011026 
-0.014468 0.061988 0.011399 -0.001605 0.850769 0.525538 
-0.015163 0.061627 0.011385 0.031230 0.923432 0.382489 
-0.014821 0.061782 0.011378 0.008692 0.889174 0.457487 
-0.016564 0.061369 0.007740 0.017124 0.998759 0.046767 
-0.015881 0.061449 0.010765 0.032654 0.983966 0.175342 
-0.003776 0.021309 0.023237 0.999875 0.007276 0.014065 
-0.009007 0.024574 0.023458 0.996367 0.085168 -0.000480 
-0.008930 0.034164 0.022790 0.993216 0.017997 0.114886 
-0.010974 0.034435 0.022849 0.999990 -0.004251 0.001283 
-0.011361 0.032189 0.022952 0.998190 0.059718 -0.007038 
-0.012077 0.033478 0.022960 0.999050 0.030707 -0.030910 
-0.010642 0.035167 0.022838 0.998734 -0.047490 0.016583 
0.008766 0.045542 0.024581 0.968765 -0.240968 0.058560 
-0.000543 0.036225 0.023468 0.981231 0.148284 0.123277 
0.001017 0.036354 0.023499 0.984322 0.139084 0.108467 
-0.003140 0.015429 0.023354 0.998660 0.051310 0.006804 
0.007770 0.044548 0.024355 0.967109 -0.246459 0.062914 
0.010076 0.028448 0.023882 0.969592 -0.042220 0.241058 
0.008861 0.043667 0.024105 0.970306 -0.231835 0.068978 
0.003215 0.032726 0.023795 0.997853 0.005654 0.065243 
0.004966 0.034448 0.023720 0.995481 0.053331 0.078569 
0.002082 0.037078 0.023436 0.983306 0.135676 0.121247 
0.009412 0.030398 0.023877 0.979388 -0.047384 0.196353 
0.010042 0.031498 0.024013 0.973446 -0.046966 0.224048 
0.003941 0.012308 0.023377 0.991687 0.089388 0.092555 
0.002441 0.034578 0.023725 0.994302 0.073348 0.077350 
0.000039 0.039548 0.023039 0.991136 0.041105 0.126334 
0.003221 0.030648 0.023733 0.995621 -0.058679 0.072772 
0.004967 0.020452 0.023008 0.995094 -0.014651 0.097842 
0.006412 0.020067 0.023040 0.993080 -0.011539 0.116869 
0.002186 0.040085 0.023199 0.984709 -0.021900 0.172827 
0.005807 0.040326 0.023533 0.990831 -0.070782 0.115085 
0.007943 0.039680 0.023554 0.993225 -0.026253 0.113205 
0.008003 0.010748 0.023678 0.984746 0.079052 0.155005 
0.010685 0.015699 0.023512 0.969361 0.060851 0.237983 
-0.025230 0.057928 -0.005841 -0.017524 0.092776 0.995533 
0.008830 0.022001 0.023279 0.979498 -0.059829 0.192364 
0.007558 0.021843 0.023150 0.987802 -0.049949 0.147489 
0.011141 0.017862 0.023520 0.960968 0.010780 0.276448 
0.011802 0.019405 0.023699 0.938338 -0.034032 0.344040 
0.015364 0.042889 0.016998 0.116685 0.023248 -0.992897 
0.015530 0.040160 0.015515 0.123893 0.048687 -0.991101 
0.015720 0.036420 0.017186 0.121123 0.100862 -0.987500 
0.015809 0.035422 0.019397 0.065960 0.106644 -0.992107 
0.015745 0.035279 0.020506 0.211326 0.043978 -0.976426 
0.015347 0.048918 0.016632 0.150827 -0.018606 -0.988385 
0.015232 0.051180 0.018404 0.196102 -0.016293 -0.980448 
0.015488 0.038823 0.020237 0.011587 0.070948 -0.997413 
0.015386 0.040212 0.019911 0.041588 0.043009 -0.998209 
0.015430 0.041153 0.020731 0.066045 0.043246 -0.996879 
0.015170 0.049169 0.018916 0.162208 0.004135 -0.986748 
0.015106 0.048205 0.020657 0.086792 0.044296 -0.995241 
0.015145 0.047470 0.019736 0.112251 0.032426 -0.993151 
0.015252 0.044769 0.019721 0.066209 0.040801 -0.996971 
0.015234 0.043929 0.021258 0.242800 0.035270 -0.969435 
0.015153 0.043678 0.021616 0.137063 0.069365 -0.988131 
0.015098 0.044565 0.021832 0.144921 0.057701 -0.987759 
0.015257 0.045436 0.020712 0.102618 0.049807 -0.993473 
0.015201 0.046199 0.020536 0.075579 0.050919 -0.995839 
0.015192 0.046092 0.019544 0.098964 0.038006 -0.994365 
0.015335 0.041851 0.019136 0.089198 0.027089 -0.995645 
0.015307 0.043296 0.022522 0.065107 0.088873 -0.993913 
0.015339 0.042816 0.022780 0.032012 0.073923 -0.996750 
0.015762 0.033856 0.020810 0.079357 0.067215 -0.994578 
0.015758 0.035544 0.021461 0.091525 0.024054 -0.995512 
0.015707 0.034975 0.020860 0.082196 0.043392 -0.995671 
0.015406 0.040795 0.021737 -0.092059 0.050227 -0.994486 
0.015486 0.039825 0.021871 -0.016664 0.077522 -0.996851 
0.015447 0.040871 0.022232 0.089760 0.049518 -0.994732 
0.015736 0.036693 0.021529 0.030020 0.020708 -0.999335 
0.015651 0.036424 0.021050 0.010278 0.042597 -0.999039 
0.012211 0.019967 0.023846 0.924847 -0.052281 0.376730 
0.015442 0.034479 0.023319 0.261985 -0.074099 -0.962223 
0.015456 0.039615 0.022868 0.030791 0.037400 -0.998826 
0.015523 0.038298 0.022408 0.195039 0.035828 -0.980141 
0.015618 0.031185 0.022264 0.385593 0.015904 -0.922532 
0.015453 0.032835 0.022888 0.350451 -0.035382 -0.935912 
0.016150 0.028496 0.020273 0.146402 0.078050 -0.986141 
0.015889 0.025855 0.022173 0.425243 0.006786 -0.905054 
0.008303 0.012532 0.023524 0.983696 0.092399 0.154289 
0.010375 0.011544 0.023863 0.969713 0.101681 0.222075 
0.010997 0.009005 0.024151 0.971180 0.034838 0.235789 
0.010065 0.010549 0.023915 0.973070 0.079415 0.216399 
0.014647 0.046986 0.023797 0.424433 0.079980 -0.901920 
0.014841 0.046377 0.023355 0.274244 0.090966 -0.957348 
0.014927 0.045536 0.023594 0.197569 0.188911 -0.961914 
0.015230 0.043750 0.022929 0.055658 0.138633 -0.988779 
0.015142 0.044486 0.023300 -0.013674 0.193480 -0.981009 
0.015118 0.044551 0.022995 0.146286 0.141069 -0.979132 
0.004734 0.063768 0.004226 -0.000548 0.999997 -0.002509 
0.007812 0.063409 0.005633 0.136241 0.980636 -0.140682 
0.008723 0.063226 0.005937 0.184767 0.974287 -0.128942 
0.007332 0.063372 0.006393 0.192146 0.974054 -0.119576 
0.014757 0.050224 0.022121 0.281927 0.001355 -0.959435 
0.014848 0.051281 0.021995 0.335813 -0.017171 -0.941772 
0.015031 0.050437 0.020116 0.173839 0.029308 -0.984338 
0.015569 0.057223 0.011052 0.106227 0.137984 -0.984721 
0.015460 0.057975 0.010838 0.144680 0.160216 -0.976421 
0.015572 0.057159 0.013344 0.094877 0.118352 -0.988429 
0.015478 0.057782 0.013459 0.094764 0.156043 -0.983194 
0.014958 0.053444 0.020226 0.231048 -0.015550 -0.972818 
0.014959 0.055769 0.019879 0.265190 0.055046 -0.962624 
0.014872 0.055081 0.020609 0.225290 0.085871 -0.970500 
0.015068 0.054548 0.019516 0.234217 0.023868 -0.971891 
0.014430 0.057067 0.022392 0.205963 0.016867 -0.978414 
0.014766 0.056778 0.020507 0.274999 0.065185 -0.959232 
0.015629 0.053829 0.015196 0.148113 -0.015841 -0.988844 
0.015276 0.058787 0.014288 0.110608 0.227053 -0.967581 
0.014802 0.058339 0.019569 0.254199 0.145021 -0.956217 
0.014965 0.058569 0.018398 0.223921 0.181186 -0.957618 
0.014480 0.060943 -0.011095 0.018016 0.652615 -0.757475 
0.014461 0.060891 -0.012076 0.016896 0.666775 -0.745067 
0.014321 0.061055 -0.011557 -0.014847 0.836332 -0.548022 
0.001838 0.063057 0.021523 0.049053 0.997307 0.054521 
0.003284 0.062910 0.022618 0.218880 0.975683 0.011602 
0.003337 0.062805 0.023274 0.212501 0.976604 0.032994 
0.008447 0.062318 0.024671 0.432583 0.898633 0.073010 
0.009543 0.062573 0.023836 0.104306 0.993449 -0.046685 
0.009878 0.062517 0.024061 0.186974 0.981408 -0.043357 
0.008061 0.062631 0.023500 0.110005 0.993742 -0.019395 
0.007485 0.062627 0.023632 0.223803 0.974139 -0.031087 
0.009172 0.062568 0.023357 -0.024898 0.997443 -0.066990 
0.006520 0.062489 0.024010 0.408969 0.911277 0.048161 
0.006020 0.062815 0.022907 0.177863 0.983430 -0.035071 
0.005449 0.062894 0.022613 0.251769 0.967773 -0.005303 
0.004598 0.063183 0.021131 0.055061 0.998178 0.024684 
0.004553 0.063222 0.020437 0.002041 0.999529 0.030608 
0.004225 0.063135 0.021839 0.167164 0.985255 0.036440 
0.006860 0.062835 0.022664 0.270069 0.962185 -0.035544 
0.004348 0.062699 0.023595 0.360834 0.932542 0.012813 
0.005038 0.062661 0.023676 0.407802 0.912636 0.028145 
0.000154 0.062854 0.022826 0.119221 0.992599 0.023087 
-0.000572 0.062838 0.022894 0.152272 0.988168 0.018382 
-0.002258 0.062908 0.021975 0.010362 0.998713 -0.049642 
-0.001200 0.062866 0.022611 0.093837 0.995555 -0.008049 
-0.001711 0.062896 0.022374 0.046606 0.998142 -0.039253 
-0.005390 0.063006 0.022960 0.190494 0.981056 -0.035225 
-0.002088 0.062844 0.023007 0.181582 0.983369 0.003577 
-0.002186 0.062902 0.022632 0.112964 0.993423 -0.018707 
-0.007131 0.063060 0.022749 0.199172 0.979518 0.029569 
-0.006453 0.063016 0.022943 0.248089 0.968020 0.037281 
-0.008284 0.062747 0.023600 0.411296 0.911450 -0.009692 
-0.009876 0.062895 0.023144 0.152699 0.984029 0.091487 
-0.009779 0.062854 0.023381 0.240920 0.968444 0.063830 
-0.008316 0.062962 0.023051 0.259499 0.965413 0.025244 
-0.007812 0.063054 0.022683 0.191430 0.980982 0.032085 
-0.010618 0.062589 0.024036 0.336843 0.934338 0.116403 
0.007062 0.063511 -0.019259 0.068593 0.995628 -0.063405 
0.014367 0.060397 -0.019174 0.076361 0.677970 -0.731113 
0.014479 0.060272 -0.019575 0.062086 0.588193 -0.806334 
0.014814 0.059703 -0.019609 0.046431 0.442059 -0.895784 
0.015040 0.059059 -0.020537 0.020248 0.310095 -0.950490 
0.014957 0.059366 -0.019792 0.040238 0.369131 -0.928506 
0.014266 0.061031 -0.012615 -0.006657 0.846621 -0.532155 
0.014432 0.060875 -0.012884 -0.009981 0.702363 -0.711749 
0.013952 0.060976 -0.015830 0.054970 0.462746 -0.884785 
0.013905 0.061098 -0.015151 0.027222 0.519383 -0.854108 
0.014188 0.060638 -0.016580 -0.000304 0.764218 -0.644957 
0.014336 0.060549 -0.016425 0.004562 0.775543 -0.631279 
0.011868 0.062311 -0.014739 0.102815 0.967327 -0.231747 
-0.020956 0.030056 0.024897 0.998660 0.048726 -0.017422 
-0.017685 0.037505 0.023915 0.987006 0.023901 -0.158896 
-0.017367 0.036319 0.023874 0.986620 0.032706 -0.159721 
-0.019071 0.038254 0.024245 0.988547 0.007994 -0.150700 
-0.016276 0.035537 0.023644 0.989300 0.033960 -0.141884 
-0.015183 0.035962 0.023401 0.994088 0.019218 -0.106862 
-0.019649 0.023822 0.025101 0.997935 0.059790 -0.023463 
0.003570 0.029632 -0.022902 -0.995662 -0.000473 0.093046 
-0.004424 0.037686 -0.023101 -0.943540 -0.260369 -0.204792 
-0.016250 0.061245 0.015934 -0.057480 0.995828 0.070872 
-0.018007 0.061313 0.016235 -0.040465 0.991646 -0.122480 
-0.022216 0.061902 0.014755 0.081647 0.988031 0.130874 
-0.021693 0.061971 0.014462 0.100193 0.994901 0.011570 
-0.018723 0.061427 0.015172 0.038727 0.977440 -0.207634 
-0.019880 0.061702 0.014921 0.064141 0.976780 -0.204420 
-0.021190 0.061886 0.004535 0.025996 0.999397 0.023027 
-0.020765 0.061804 0.006133 0.030976 0.997724 -0.059888 
-0.006724 0.022055 -0.022938 -0.996347 0.045519 -0.072248 
-0.021976 0.061837 0.000264 -0.012618 0.992618 0.120624 
-0.022432 0.061754 0.005018 0.000414 0.980104 0.198485 
-0.023439 0.061840 0.011982 -0.020906 0.903393 0.428304 
-0.023152 0.033208 0.017124 -0.208329 0.060751 0.976170 
-0.023172 0.036401 0.014583 -0.134065 -0.174011 0.975575 
-0.024512 0.049224 0.013140 -0.151826 -0.097671 0.983570 
-0.025043 0.058729 0.009419 -0.229430 0.163556 0.959485 
-0.025296 0.057877 0.010431 -0.222419 0.083226 0.971392 
-0.024873 0.054818 0.006936 -0.154614 -0.080536 0.984687 
-0.024936 0.059561 -0.003414 -0.061833 0.229252 0.971401 
-0.024803 0.055185 0.005316 -0.121507 -0.062440 0.990625 
-0.024639 0.060746 0.011904 -0.105129 0.592917 0.798371 
-0.024760 0.060558 0.011628 -0.136433 0.544163 0.827812 
-0.023353 0.061847 0.012633 0.044747 0.917637 0.394893 
-0.023475 0.061743 0.013052 0.068469 0.890976 0.448859 
-0.023879 0.061580 0.011540 -0.081633 0.811152 0.579110 
-0.023740 0.061617 0.010970 -0.122827 0.834930 0.536476 
-0.024289 0.060680 0.017412 -0.025286 0.532580 0.846002 
-0.025189 0.059905 0.013122 -0.063453 0.392284 0.917653 
-0.024751 0.060638 0.012591 -0.088108 0.581327 0.808886 
-0.024533 0.060909 0.012249 -0.101036 0.601237 0.792657 
-0.025109 0.058973 0.010072 -0.242868 0.179805 0.953250 
-0.025372 0.059346 0.012847 -0.113777 0.255501 0.960091 
-0.025509 0.058702 0.013727 -0.045542 0.133478 0.990005 
-0.024645 0.049927 0.015128 -0.069141 -0.078260 0.994533 
-0.025582 0.057798 0.013489 -0.062035 0.034598 0.997474 
-0.025461 0.058320 0.014826 0.039894 0.090570 0.995091 
-0.025581 0.056569 0.013070 -0.092402 -0.041989 0.994836 
-0.025270 0.054509 0.015393 0.016817 -0.136050 0.990559 
-0.025234 0.054175 0.011350 -0.146549 -0.150733 0.977652 
-0.024579 0.052291 0.006561 -0.119083 -0.126166 0.984836 
-0.025491 0.055406 0.013739 -0.057002 -0.110856 0.992200 
-0.024763 0.051125 0.013158 -0.108662 -0.162173 0.980761 
-0.024621 0.049781 0.014131 -0.114488 -0.092293 0.989128 
-0.023008 0.035710 0.013043 -0.095426 -0.134876 0.986257 
-0.022834 0.033429 0.013441 -0.104369 -0.012474 0.994460 
-0.022920 0.061935 0.022835 0.162489 0.983494 0.079605 
-0.023584 0.061844 0.022615 0.061854 0.935934 0.346700 
-0.021135 0.032084 0.024822 0.998590 0.046652 0.025338 
-0.018595 0.019381 0.025154 0.999765 0.017563 -0.012719 
-0.019986 0.026715 0.024956 0.997206 0.055072 -0.050478 
-0.018908 0.026430 0.024805 0.991116 0.089464 -0.098411 
-0.009272 0.019642 0.023816 0.997652 0.055430 -0.040224 
-0.017479 0.016877 0.025081 0.999891 0.009715 -0.011123 
-0.020783 0.018464 0.025201 0.986317 -0.028646 0.162354 
-0.018295 0.017433 0.025143 0.999950 -0.000833 0.009985 
-0.016167 0.013364 0.025006 0.999851 0.010638 -0.013558 
-0.020081 0.018563 0.025227 0.996981 -0.017381 0.075681 
-0.020197 0.015346 0.025136 0.992124 -0.024366 0.122870 
-0.018224 0.012140 0.025135 0.998380 0.003347 0.056800 
-0.017885 0.010715 0.025125 0.998856 0.006921 0.047311 
-0.017447 0.009389 0.025129 0.999458 0.011999 0.030658 
-0.021097 0.008036 0.024936 0.974969 0.010013 0.222114 
-0.021226 0.007365 0.024932 0.971655 0.000725 0.236402 
-0.021684 0.006883 0.024788 0.871763 -0.016064 0.489665 
-0.021619 0.007472 0.024857 0.910507 -0.021220 0.412948 
0.010759 -0.021212 -0.024618 -0.996722 0.037863 -0.071493 
-0.019760 -0.007022 -0.025767 -0.999357 0.023301 -0.027246 
-0.019228 -0.007659 -0.025810 -0.997897 0.037184 -0.053096 
-0.022610 -0.051417 0.011845 -0.021469 -0.186865 0.982151 
-0.022509 -0.052867 0.009039 -0.006659 -0.211475 0.977361 
-0.022065 -0.053912 0.014556 -0.100243 -0.176701 0.979147 
-0.011904 0.012324 -0.023809 -0.971634 0.074352 -0.224498 
-0.019928 -0.029841 0.025427 0.922598 -0.002348 0.385755 
-0.019488 -0.028784 0.025533 0.948313 -0.018655 0.316786 
-0.021631 -0.056737 0.012903 -0.100431 -0.047832 0.993794 
-0.021696 -0.056039 0.012316 -0.057642 -0.133310 0.989397 
-0.021843 -0.055030 0.012989 -0.065462 -0.168212 0.983575 
-0.020204 0.009099 -0.025682 -0.990664 0.079487 -0.110752 
-0.019842 0.010750 -0.025526 -0.984620 0.087162 -0.151415 
-0.007393 -0.014680 0.024607 0.999604 0.028104 0.001386 
-0.010417 0.015007 -0.023408 -0.981923 0.076200 -0.173263 
-0.015441 0.020158 -0.023898 -0.945242 0.055292 -0.321651 
-0.019650 0.002981 0.025295 0.983827 0.059423 0.168975 
-0.017065 0.001473 0.025418 0.997156 0.071809 0.022884 
-0.018061 0.002536 0.025379 0.995671 0.065521 0.065929 
0.009477 -0.056521 -0.024815 -0.960643 0.258848 -0.100807 
-0.019264 0.013154 -0.025154 -0.962420 0.131723 -0.237481 
-0.019696 0.012789 -0.025260 -0.972938 0.127021 -0.193024 
0.015818 0.015807 -0.024718 -0.993239 -0.009858 -0.115668 
0.015398 0.016329 -0.024714 -0.995329 -0.042417 0.086720 
-0.020340 0.019644 -0.025221 -0.973805 0.003375 -0.227362 
-0.019713 0.019118 -0.025109 -0.958377 0.002687 -0.285492 
-0.020497 0.022573 -0.025153 -0.962912 0.054411 -0.264274 
-0.019861 0.022105 -0.025049 -0.950114 0.055361 -0.306950 
-0.020892 0.023767 -0.025156 -0.967618 0.052647 -0.246867 
-0.020741 0.018799 -0.025264 -0.986685 -0.018069 -0.161635 
-0.020269 0.020454 -0.025199 -0.967799 0.020353 -0.250899 
0.019777 -0.014834 -0.024475 -0.864649 0.038344 -0.500911 
0.018739 -0.009967 -0.024796 -0.932788 0.028968 -0.359260 
0.019045 -0.009677 -0.024685 -0.900769 0.037334 -0.432692 
0.018913 -0.008009 -0.024651 -0.894721 0.057219 -0.442944 
0.017398 -0.010925 -0.025040 -0.996289 0.011504 -0.085292 
0.017756 -0.010767 -0.025019 -0.984623 0.012344 -0.174259 
0.018646 -0.011277 -0.024861 -0.946253 0.014000 -0.323123 
0.016357 -0.035531 -0.025403 -0.977431 -0.015431 0.210692 
0.016910 -0.035465 -0.025522 -0.994391 -0.023841 0.103047 
-0.020987 -0.024245 -0.025782 -0.990504 -0.062388 0.122513 
-0.020502 -0.024763 -0.025823 -0.996901 -0.066241 0.042429 
0.023736 -0.037642 -0.010769 0.235154 -0.145992 -0.960931 
0.024423 -0.034192 -0.011939 0.264332 -0.109320 -0.958216 
0.023603 -0.039212 -0.011569 0.204552 -0.165547 -0.964755 
-0.022311 -0.055611 0.003601 -0.019717 -0.165665 0.985985 
-0.022727 -0.054774 -0.001070 -0.034363 -0.198603 0.979477 
-0.022376 -0.057064 -0.001609 -0.034642 -0.105831 0.993781 
-0.022291 -0.057676 -0.000873 -0.035570 -0.066157 0.997175 
0.012173 -0.015014 0.024500 0.985229 0.054494 0.162340 
0.011185 -0.017145 0.024500 0.985743 0.031723 0.165239 
0.019557 -0.056317 0.011904 0.067519 -0.146471 -0.986908 
0.019407 -0.058363 0.014698 0.068771 -0.168476 -0.983304 
0.019297 -0.058409 0.012515 0.005973 -0.224859 -0.974373 
0.015743 0.008431 0.023756 0.649358 0.045028 -0.759149 
0.016111 0.007908 0.023233 0.565433 0.043203 -0.823662 
0.017738 -0.007940 -0.024948 -0.979875 0.032899 -0.196881 
0.018193 -0.007720 -0.024867 -0.956304 0.039650 -0.289674 
0.005191 0.001006 0.023782 0.996728 0.000627 0.080830 
0.022876 0.001690 -0.018731 -0.095523 0.130939 -0.986778 
0.023030 0.001428 -0.017906 -0.046621 0.130675 -0.990329 
0.022553 -0.007790 -0.020385 -0.303013 0.065857 -0.950708 
0.023417 -0.002422 -0.015936 0.031284 0.023847 -0.999226 
0.022529 -0.017105 -0.022170 -0.341417 0.174620 -0.923549 
0.022666 -0.016327 -0.021560 -0.307329 0.124065 -0.943481 
0.023286 -0.005693 -0.017522 -0.092708 0.019719 -0.995498 
0.023166 -0.006346 -0.018224 -0.143590 0.026886 -0.989272 
-0.006156 -0.020413 0.024638 0.998777 0.021932 -0.044315 
-0.005781 -0.055087 0.024932 0.999825 -0.003724 -0.018320 
0.024339 -0.022263 -0.015660 0.063432 0.100526 -0.992910 
0.015250 0.029559 0.023463 0.432693 0.028099 -0.901104 
0.015514 0.027698 0.023016 0.448896 0.029663 -0.893092 
0.015163 0.028118 0.023758 0.548040 -0.000944 -0.836452 
0.017375 0.018140 0.016991 0.283523 0.056920 -0.957275 
0.017042 0.008317 0.021111 0.420416 0.052446 -0.905814 
0.017484 0.011067 0.018925 0.252833 0.066825 -0.965200 
0.016160 0.016736 0.021513 0.435921 0.063186 -0.897764 
0.016870 0.013769 0.020226 0.420686 0.066859 -0.904739 
0.016595 0.015327 0.020615 0.434244 0.070131 -0.898061 
0.015192 0.058676 -0.019707 0.039549 0.255796 -0.965922 
0.015071 0.059087 -0.019428 0.043814 0.324784 -0.944773 
0.014616 0.060033 -0.020591 0.048878 0.497083 -0.866325 
0.017812 0.003235 0.019352 0.325727 0.044768 -0.944403 
0.017727 0.001929 0.019853 0.364817 0.038546 -0.930281 
0.017527 0.003704 0.020274 0.377328 0.040326 -0.925201 
0.017610 -0.001202 0.020643 0.421849 0.065481 -0.904298 
0.017271 -0.002147 0.021626 0.487859 0.066234 -0.870406 
0.016956 -0.003572 0.022461 0.535872 0.057659 -0.842328 
0.016483 -0.003388 0.023292 0.560965 0.038001 -0.826967 
0.017611 -0.018578 0.021241 0.481771 -0.020212 -0.876064 
0.019216 -0.016510 0.016772 0.301940 -0.001172 -0.953326 
0.019519 -0.036234 0.016984 0.380184 -0.038161 -0.924123 
0.018323 -0.046380 0.019952 0.473058 0.103018 -0.874988 
0.019315 -0.050807 0.018016 0.345423 0.015105 -0.938325 
0.018930 -0.050992 0.019274 0.376728 0.041071 -0.925413 
0.019141 -0.049206 0.018409 0.382405 0.052909 -0.922479 
0.018074 -0.032784 0.020898 0.541449 -0.038882 -0.839834 
0.018349 -0.034437 0.020161 0.499214 -0.052627 -0.864879 
0.017930 -0.030554 0.021288 0.571431 -0.010929 -0.820577 
0.018600 -0.020536 0.018817 0.407176 0.016875 -0.913194 
0.018458 -0.022467 0.019365 0.431635 0.038291 -0.901235 
0.017965 -0.026037 0.020894 0.541478 0.054048 -0.838976 
0.018461 -0.026947 0.020041 0.473358 0.063930 -0.878547 
0.017875 -0.028146 0.021300 0.574399 0.041224 -0.817537 
0.018476 -0.055859 0.021178 0.429296 -0.001043 -0.903163 
0.019424 -0.058055 0.016675 0.156274 -0.135193 -0.978418 
0.012414 -0.038138 0.024366 0.999118 -0.038794 0.016058 
0.011194 -0.035969 0.024481 0.998738 -0.011640 0.048856 
0.017593 -0.024608 0.021419 0.542238 0.029955 -0.839691 
0.017157 -0.024670 0.022226 0.592417 0.027313 -0.805168 
-0.002735 -0.007230 0.024062 0.998594 0.045903 0.026500 
0.017671 -0.035566 0.021343 0.556054 -0.056074 -0.829253 
0.019415 -0.031918 0.017685 0.373936 -0.013953 -0.927350 
0.019808 -0.031086 0.016278 0.334088 0.011944 -0.942466 
0.019772 -0.033484 0.016397 0.353660 -0.017993 -0.935201 
0.012421 -0.025155 0.024240 0.998096 0.015215 -0.059767 
0.017595 -0.006692 0.021622 0.513393 0.034622 -0.857455 
0.017935 -0.007097 0.020935 0.438085 0.026520 -0.898542 
0.016822 0.000858 0.022298 0.486037 0.024530 -0.873594 
0.016773 -0.001178 0.022554 0.507344 0.038791 -0.860870 
0.005787 -0.055316 0.024061 0.996099 0.081031 0.034944 
-0.001476 -0.051815 0.024537 0.999790 0.013498 -0.015399 
0.006888 -0.010959 0.023998 0.996171 0.025623 0.083587 
0.010134 -0.009466 0.024076 0.989311 0.017544 0.144763 
0.017098 -0.016867 0.022527 0.587085 -0.030765 -0.808941 
0.018045 -0.020894 0.020290 0.458962 0.014732 -0.888334 
0.001842 -0.014020 0.024230 0.998533 0.018991 0.050700 
0.010612 -0.018267 0.024485 0.987592 0.027551 0.154605 
-0.020314 -0.021222 0.025184 0.774414 0.031926 0.631874 
-0.019973 -0.020642 0.025363 0.854020 0.057267 0.517079 
-0.020150 -0.018587 0.025092 0.879514 0.072333 0.470343 
-0.019080 -0.018470 0.025498 0.927702 0.103641 0.358646 
0.012637 -0.013903 0.024469 0.986803 0.065830 0.147940 
-0.005923 0.003238 0.023996 0.999257 0.038383 0.003416 
-0.004924 0.004454 0.023887 0.999196 0.034686 0.020090 
-0.000952 0.012900 0.023377 0.997247 0.059934 0.043651 
-0.001947 0.011239 0.023505 0.998018 0.047150 0.041671 
-0.016634 0.002638 0.025295 0.997643 0.068524 0.003557 
-0.014090 0.004144 0.024954 0.998037 0.041646 -0.046771 
-0.007064 -0.004344 0.024353 0.998841 0.023406 -0.042058 
-0.001945 0.006514 0.023709 0.997101 0.037508 0.066196 
-0.007652 -0.058490 0.025123 0.998714 -0.017448 -0.047594 
-0.020045 -0.008549 0.025077 0.953721 -0.026185 0.299552 
-0.020447 -0.000796 0.025239 0.939289 -0.009908 0.342983 
-0.018558 -0.000367 0.025509 0.991287 0.016075 0.130735 
-0.017990 0.000239 0.025503 0.995926 0.030010 0.085030 
-0.003936 0.003150 0.023881 0.998828 0.034483 0.033975 
-0.013312 -0.012759 0.025114 0.998806 -0.041423 -0.025909 
-0.011678 -0.013063 0.024930 0.999837 -0.004389 -0.017496 
0.007606 0.063423 -0.021692 -0.102109 0.991183 -0.084442 
0.009458 0.063139 -0.018886 0.105366 0.985329 -0.134258 
-0.019348 0.010199 0.025131 0.992293 0.007359 0.123699 
-0.003997 -0.003182 0.024019 0.999911 0.013290 0.001417 
-0.002501 -0.004154 0.023933 0.999306 0.018586 0.032294 
-0.010609 -0.020522 0.025290 0.996538 0.054324 -0.062936 
-0.015551 -0.019381 0.025779 0.996791 0.079254 0.011210 
0.001376 -0.019791 0.024230 0.997606 0.002129 0.069126 
-0.005793 -0.018319 0.024561 0.999708 0.017638 -0.016499 
-0.001937 -0.021563 0.024294 0.999023 0.005817 0.043813 
-0.017792 -0.022841 0.025947 0.988000 0.017176 0.153494 
-0.017905 -0.018530 0.025715 0.981878 0.095307 0.163806 
-0.020429 -0.020299 0.025030 0.812834 0.038614 0.581215 
-0.020248 -0.020562 0.025181 0.780029 0.058593 0.622994 
-0.017670 -0.017001 0.025557 0.985455 0.119856 0.120470 
-0.018740 -0.020879 0.025779 0.962291 0.046067 0.268094 
-0.015366 -0.015906 0.025382 0.992920 0.117027 0.020344 
-0.013393 -0.017372 0.025383 0.994468 0.101191 -0.028179 
-0.015991 -0.015395 0.025351 0.993500 0.104814 0.044402 
-0.014984 -0.015273 0.025288 0.995805 0.089913 0.016984 
-0.012162 -0.025360 0.025652 0.998626 0.013321 -0.050682 
-0.013241 -0.023520 0.025758 0.998966 0.022514 -0.039506 
-0.018978 -0.024694 0.025796 0.945954 -0.010905 0.324118 
-0.014645 -0.025295 0.025917 0.999999 0.001119 0.001004 
-0.015993 -0.025058 0.025997 0.998797 -0.001165 0.049015 
-0.018542 -0.028582 0.025737 0.970891 -0.036165 0.236777 
-0.015985 -0.030040 0.025890 0.996639 -0.020145 0.079400 
-0.019761 -0.036737 0.025350 0.958274 -0.032114 0.284040 
-0.001192 -0.025086 0.024344 0.998305 0.034699 0.046715 
-0.018856 -0.050098 0.025917 0.968779 0.045602 0.243697 
-0.019082 -0.049210 0.025831 0.962927 0.045416 0.265913 
-0.018282 -0.048981 0.025952 0.978933 0.050005 0.197961 
-0.013130 -0.056081 0.025931 0.999699 -0.011520 -0.021676 
-0.019549 -0.052283 0.025836 0.946864 0.035575 0.319661 
-0.019515 -0.053932 0.025915 0.946602 0.023262 0.321565 
-0.019966 -0.053163 0.025757 0.915509 0.032721 0.400964 
-0.017978 -0.055009 0.026139 0.993400 0.005161 0.114587 
-0.013685 -0.058806 0.025816 0.994226 -0.106953 0.008700 
0.012786 -0.033477 0.024372 0.999421 0.027206 -0.020455 
0.011245 -0.028676 0.024395 0.999904 0.013506 0.003197 
0.013831 -0.029853 0.024081 0.992818 0.032638 -0.115095 
0.012807 -0.031549 0.024313 0.998942 0.029896 -0.034951 
0.013600 -0.030869 0.024180 0.994871 0.042489 -0.091795 
-0.013671 -0.026574 0.025831 0.999840 -0.005131 -0.017136 
-0.013202 -0.025868 0.025781 0.999541 0.003449 -0.030085 
-0.018712 -0.023914 0.025844 0.964750 0.026275 0.261853 
-0.018503 -0.023226 0.025857 0.970384 0.019370 0.240790 
-0.018136 -0.023844 0.025925 0.983428 0.018729 0.180328 
0.005969 -0.046604 0.023987 0.996453 -0.079114 0.028695 
0.009113 -0.052185 0.023750 0.995847 0.050715 0.075611 
0.010200 -0.049862 0.023721 0.994456 -0.015305 0.104029 
0.011659 -0.048793 0.023802 0.993584 -0.037086 0.106848 
0.012853 -0.052089 0.023815 0.995311 0.037482 0.089163 
0.012176 -0.043167 0.024184 0.995722 -0.080031 0.046180 
0.010707 -0.044812 0.024053 0.993353 -0.090908 0.070602 
0.008979 -0.047808 0.023792 0.995348 -0.063235 0.072686 
0.004538 -0.049418 0.023918 0.999792 -0.019951 -0.004347 
0.006381 -0.049662 0.023780 0.999558 -0.018833 0.023014 
0.012747 -0.049214 0.023810 0.995596 -0.025154 0.090307 
0.001552 -0.051276 0.024214 0.999452 0.018076 -0.027738 
-0.019569 -0.040353 0.025378 0.957696 0.018333 0.287197 
-0.001087 -0.022874 0.024281 0.998356 0.019663 0.053838 
0.006806 -0.025371 0.024440 0.994193 0.014517 0.106632 
-0.003998 -0.059758 0.024714 0.997171 -0.074953 -0.005639 
-0.024944 0.053542 -0.014302 -0.260084 0.005021 0.965573 
-0.020120 -0.049832 0.025558 0.884285 0.052702 0.463964 
-0.020462 -0.050074 0.025397 0.785055 0.061376 0.616378 
-0.017906 -0.057312 0.026096 0.990368 -0.060940 0.124325 
0.000202 0.007660 -0.024037 -0.991765 0.124601 0.029614 
0.000275 0.005647 -0.024232 -0.997756 0.066913 0.002398 
-0.019250 -0.001967 -0.025761 -0.995554 -0.008004 -0.093848 
0.019091 -0.058671 0.018583 0.256342 -0.228226 -0.939256 
0.018875 -0.058847 0.001907 -0.094791 -0.413194 -0.905696 
0.019589 -0.056252 0.002160 -0.014959 -0.223987 -0.974477 
0.019318 -0.056398 0.000208 -0.068792 -0.312255 -0.947504 
0.020712 -0.050509 0.000570 0.088321 -0.182492 -0.979232 
0.021151 -0.047960 0.000516 0.098589 -0.158128 -0.982484 
0.021711 -0.044419 -0.000608 0.119601 -0.128689 -0.984446 
0.021719 -0.046311 -0.005902 0.159195 -0.190106 -0.968771 
0.021178 -0.048893 -0.005768 0.135754 -0.213691 -0.967423 
0.021485 -0.046299 -0.001739 0.115684 -0.152667 -0.981484 
0.021552 -0.046301 -0.003636 0.129807 -0.167657 -0.977262 
0.021030 -0.049112 -0.001691 0.097228 -0.179988 -0.978852 
0.022861 -0.039367 -0.006430 0.209766 -0.120460 -0.970303 
0.023187 -0.039127 -0.008633 0.217711 -0.136575 -0.966411 
-0.023169 -0.018706 -0.012702 -0.051388 0.008840 0.998640 
-0.023147 -0.016930 -0.013715 -0.057294 0.044692 0.997357 
-0.023837 -0.022556 -0.019606 -0.091913 0.010059 0.995716 
-0.022505 -0.054775 -0.009240 -0.173542 -0.137545 0.975174 
-0.022804 -0.009471 -0.008915 0.079540 -0.093927 0.992397 
-0.022666 -0.012963 -0.007425 0.018147 0.112045 0.993537 
-0.022402 -0.056901 -0.008686 -0.131802 -0.004800 0.991264 
-0.022452 -0.057143 -0.007457 -0.101086 -0.035887 0.994230 
-0.022263 -0.061117 -0.004782 -0.042147 -0.047566 0.997979 
-0.022397 -0.058051 -0.004938 -0.060069 -0.057959 0.996510 
-0.022642 -0.005868 -0.005681 0.014478 0.070802 0.997385 
-0.022980 -0.004847 -0.008808 0.089744 0.122838 0.988361 
-0.022536 -0.007733 -0.005402 0.006748 -0.100688 0.994895 
-0.022611 -0.007025 -0.005556 0.013338 -0.070365 0.997432 
-0.022519 -0.002291 -0.006015 -0.024212 0.033485 0.999146 
-0.022679 -0.009847 -0.008333 0.073800 -0.066633 0.995045 
-0.022464 0.001008 -0.005576 -0.056873 -0.017851 0.998222 
-0.022568 -0.002355 -0.006598 -0.047491 0.068304 0.996534 
-0.022823 -0.000868 -0.011302 0.182156 0.125026 0.975289 
-0.022609 0.009650 -0.007196 -0.018202 -0.043102 0.998905 
-0.022537 0.009222 -0.006385 0.011338 -0.056273 0.998351 
-0.023490 0.004358 -0.015907 0.082672 -0.006762 0.996554 
-0.022516 0.008532 -0.006666 0.015305 -0.040833 0.999049 
-0.022621 0.022393 -0.009303 -0.048944 0.077097 0.995822 
-0.022785 0.019954 -0.010649 -0.054569 0.034092 0.997928 
-0.022512 0.017465 -0.005568 -0.056620 -0.076827 0.995435 
-0.022571 0.018929 -0.004798 -0.026228 -0.060158 0.997844 
-0.022664 0.015485 -0.006901 -0.126443 0.080337 0.988715 
-0.023192 0.001733 -0.013818 0.114860 0.068999 0.990982 
-0.023829 -0.001903 -0.015436 0.020646 0.076465 0.996859 
-0.023075 0.001374 -0.013150 0.146562 0.062069 0.987252 
-0.022691 0.021425 -0.009208 -0.049358 0.050852 0.997486 
-0.022837 -0.000166 -0.010638 -0.077886 -0.029056 0.996539 
-0.022719 0.021116 -0.009618 -0.048410 0.024994 0.998515 
-0.023209 0.003291 -0.014281 0.140023 0.038405 0.989403 
-0.023211 0.002431 -0.014134 0.117978 0.051173 0.991697 
-0.022984 -0.012071 -0.016510 -0.085016 -0.041073 0.995533 
-0.022975 -0.002092 -0.010929 0.175036 0.187046 0.966631 
-0.023433 0.010797 -0.019034 0.119335 -0.029775 0.992407 
-0.023577 0.012794 -0.018630 0.097285 -0.109222 0.989245 
-0.023524 -0.011662 -0.021453 0.045618 -0.044577 0.997964 
-0.023411 0.014393 -0.016777 0.070505 -0.033957 0.996933 
-0.023941 0.016173 -0.019678 0.085583 0.013777 0.996236 
-0.022850 0.018695 -0.012949 -0.041873 0.018957 0.998943 
-0.022884 0.018201 -0.013609 -0.035411 0.037811 0.998657 
-0.022930 0.018839 -0.014654 0.022047 0.039234 0.998987 
-0.022887 0.019066 -0.014220 -0.019327 0.028956 0.999394 
-0.023053 -0.011628 -0.018167 -0.002453 -0.047225 0.998881 
-0.023046 -0.012689 -0.018399 0.003719 0.000186 0.999993 
-0.022805 0.020460 -0.012693 -0.054586 0.028191 0.998111 
-0.022825 0.011028 -0.010927 -0.017263 -0.013344 0.999762 
-0.022867 0.011686 -0.011328 -0.000574 -0.030142 0.999545 
-0.022285 -0.058370 -0.014664 -0.040326 0.107349 0.993403 
-0.022457 -0.059754 -0.014989 -0.044265 0.079716 0.995834 
-0.023016 0.008234 -0.012577 -0.000523 0.007117 0.999975 
-0.022856 0.002925 -0.011898 0.044658 -0.002499 0.998999 
-0.023758 0.002305 -0.019717 -0.018739 0.013180 0.999738 
-0.023769 0.003151 -0.019810 -0.016799 -0.024581 0.999557 
-0.023780 0.001597 -0.019643 -0.026007 0.052219 0.998297 
-0.022863 0.010422 -0.012052 0.013577 0.000344 0.999908 
-0.023558 0.006474 -0.016463 0.072409 0.057750 0.995702 
-0.022752 0.003724 -0.010910 0.011286 -0.006396 0.999916 
-0.020730 -0.062819 -0.020221 -0.108217 -0.858751 -0.500835 
-0.022883 0.007396 -0.010790 0.027522 0.031365 0.999129 
-0.022884 0.006675 -0.010612 0.014371 0.000490 0.999897 
-0.022931 0.004574 -0.012515 0.001143 -0.028236 0.999601 
-0.022779 0.008403 -0.010316 0.045590 0.009943 0.998911 
-0.023031 -0.050314 -0.016653 -0.076728 -0.160496 0.984050 
-0.022885 0.008985 -0.011106 0.023109 -0.003826 0.999726 
-0.021596 -0.063202 -0.013781 -0.008992 -0.996179 0.086868 
-0.022333 -0.063189 -0.015542 0.053859 -0.985756 0.159326 
-0.021502 -0.063318 -0.011227 -0.020744 -0.999731 0.010385 
-0.023261 0.007675 -0.015239 0.104483 0.047163 0.993408 
-0.021185 -0.063311 -0.010552 0.015047 -0.994726 -0.101461 
-0.020875 -0.063216 -0.009860 0.062677 -0.978718 -0.195402 
-0.023837 0.005935 -0.019405 -0.012016 0.008836 0.999889 
-0.023190 -0.013228 -0.019589 0.063203 0.010416 0.997946 
-0.023412 -0.008981 -0.019220 0.015630 -0.116057 0.993119 
-0.022099 -0.063128 -0.014554 0.044365 -0.989570 0.137052 
-0.022608 -0.059891 -0.011203 -0.110625 0.120746 0.986500 
-0.023863 0.003117 -0.021006 -0.016393 -0.019325 0.999679 
-0.023550 -0.008581 -0.020100 0.031977 -0.088813 0.995535 
-0.023272 -0.019175 -0.014417 0.014304 0.030502 0.999432 
-0.023312 -0.024760 -0.011496 -0.022317 -0.019146 0.999568 
-0.023627 -0.005977 -0.023042 -0.288589 -0.004778 0.957441 
-0.023554 -0.018039 -0.022217 -0.173361 0.031345 0.984359 
-0.023828 -0.005082 -0.019448 -0.073911 -0.075037 0.994438 
-0.023453 -0.015904 -0.022771 -0.208125 -0.004687 0.978091 
-0.023428 -0.004244 -0.023743 -0.440892 -0.003181 0.897555 
-0.023353 -0.038708 -0.011230 -0.139446 0.140987 0.980142 
-0.023644 -0.006750 -0.022926 -0.280184 0.008390 0.959910 
-0.023249 0.000958 -0.013797 0.120642 0.086566 0.988914 
-0.023465 -0.014984 -0.022786 -0.187813 -0.017328 0.982052 
-0.023461 -0.015787 -0.020549 -0.001290 0.060162 0.998188 
-0.023272 -0.010066 -0.019099 0.036489 -0.104365 0.993869 
-0.023611 -0.011218 -0.022301 -0.055539 -0.048436 0.997281 
-0.023759 0.006804 -0.018828 -0.003541 0.074233 0.997235 
-0.023295 -0.011713 -0.020031 0.085054 -0.047451 0.995246 
-0.023183 -0.012434 -0.019522 0.065429 -0.019405 0.997668 
-0.023908 -0.000552 -0.018776 -0.045015 0.066773 0.996752 
-0.023037 -0.011181 -0.016500 -0.087365 -0.087869 0.992293 
-0.023526 0.007553 -0.016921 0.032572 0.109365 0.993468 
-0.023605 0.018229 -0.018519 0.124172 0.082679 0.988810 
-0.022730 0.006189 -0.024919 -0.709635 -0.012562 0.704457 
-0.023507 0.011555 -0.019044 0.122264 -0.105628 0.986861 
-0.023625 0.014382 -0.018075 0.090386 -0.053909 0.994447 
-0.022441 -0.058273 -0.009472 -0.095570 0.087524 0.991567 
-0.022404 -0.057660 -0.009156 -0.113387 0.051926 0.992193 
-0.023887 0.015013 -0.019369 0.088775 -0.023867 0.995766 
-0.021139 -0.063214 -0.009147 0.059054 -0.989904 -0.128852 
-0.021013 -0.063169 -0.008049 0.064012 -0.983936 -0.166651 
-0.021592 -0.063267 -0.009577 0.033832 -0.999132 -0.024296 
-0.020725 -0.063112 -0.008672 0.062567 -0.973667 -0.219223 
-0.022820 -0.012739 -0.009084 0.030440 0.077135 0.996556 
-0.023277 0.016486 -0.016089 0.085875 0.051984 0.994949 
-0.022361 -0.063251 -0.011095 -0.036399 -0.997434 0.061649 
-0.022103 -0.063218 -0.011524 -0.060225 -0.997589 0.034494 
-0.023976 0.019574 -0.020692 0.118715 0.037442 0.992222 
-0.024151 0.015321 -0.022574 -0.194053 -0.022179 0.980740 
-0.021488 -0.063108 -0.006551 0.013339 -0.996968 -0.076657 
-0.023251 0.009675 -0.017033 -0.010961 0.087762 0.996081 
-0.023862 0.010177 -0.020988 0.104185 -0.011552 0.994491 
-0.011116 -0.059708 -0.003397 0.072785 -0.724552 0.685366 
-0.023671 0.006838 -0.017573 0.015511 0.088446 0.995960 
-0.021824 -0.063121 -0.003895 0.024918 -0.998884 -0.040115 
-0.023398 0.008956 -0.017847 0.016887 0.125589 0.991939 
-0.023440 0.008284 -0.017133 0.008139 0.143239 0.989655 
-0.023503 0.009142 -0.018920 0.055664 0.106157 0.992790 
-0.023553 0.010281 -0.019572 0.132294 0.003265 0.991205 
-0.023603 0.009023 -0.023922 -0.566053 0.011614 0.824287 
-0.023289 0.012267 -0.016932 0.009279 -0.083868 0.996434 
-0.023224 0.011575 -0.016936 -0.008539 -0.065140 0.997840 
-0.022443 -0.059106 -0.007426 -0.030867 0.012898 0.999440 
-0.022495 -0.059586 -0.008147 -0.017551 0.031763 0.999341 
-0.023687 0.014591 -0.023853 -0.612090 -0.008302 0.790744 
-0.023746 0.009587 -0.023572 -0.416303 -0.014721 0.909107 
-0.024014 0.018086 -0.023512 -0.434462 -0.021002 0.900446 
-0.023963 0.021354 -0.020748 0.133176 -0.010238 0.991040 
-0.024172 0.016009 -0.021552 -0.017344 -0.006729 0.999827 
-0.024115 0.016089 -0.022949 -0.282187 -0.031280 0.958849 
-0.021930 -0.063200 -0.007767 0.070358 -0.996009 -0.054926 
-0.023344 0.012910 -0.024255 -0.735102 0.005487 0.677934 
-0.022940 0.014811 -0.024806 -0.736602 -0.047990 0.674622 
-0.022925 0.022219 -0.025080 -0.799180 -0.038232 0.599875 
-0.023086 0.021976 -0.024866 -0.608775 -0.030310 0.792764 
-0.023944 0.016988 -0.023586 -0.477123 -0.029784 0.878331 
-0.023599 0.015685 -0.024031 -0.731923 -0.063550 0.678417 
-0.023331 0.015711 -0.024249 -0.810009 -0.027141 0.585789 
-0.023760 0.014097 -0.023718 -0.558565 -0.006223 0.829437 
-0.023592 0.013461 -0.023984 -0.664584 -0.002370 0.747210 
-0.023057 0.010935 -0.024550 -0.653197 -0.027099 0.756703 
-0.024100 0.017043 -0.023128 -0.314252 -0.026234 0.948977 
-0.024165 0.017432 -0.022778 -0.191844 -0.016754 0.981282 
-0.022230 0.012272 -0.025248 -0.979451 0.078429 0.185808 
-0.022555 0.009891 -0.025165 -0.818089 -0.008772 0.575025 
-0.023006 0.007949 -0.024581 -0.702529 -0.008996 0.711598 
-0.022797 0.010489 -0.024940 -0.708036 -0.021201 0.705858 
-0.023003 0.010335 -0.024618 -0.627533 -0.013828 0.778467 
-0.023529 0.014189 -0.024050 -0.697719 -0.006609 0.716341 
-0.023295 0.014381 -0.024297 -0.741863 0.010359 0.670472 
-0.023126 0.013488 -0.024456 -0.674997 0.004355 0.737808 
-0.023233 0.020085 -0.024451 -0.612509 -0.018861 0.790239 
-0.023193 0.019598 -0.024504 -0.540075 -0.029500 0.841100 
-0.023499 0.015246 -0.024098 -0.746738 -0.022025 0.664753 
-0.023673 0.014986 -0.023876 -0.624816 -0.022501 0.780448 
-0.023143 0.019926 -0.024705 -0.533850 -0.025122 0.845206 
-0.023329 0.020540 -0.024336 -0.741087 -0.002287 0.671405 
-0.023473 0.014744 -0.024126 -0.736973 -0.000152 0.675922 
-0.022926 0.017076 -0.024870 -0.725624 -0.024718 0.687648 
-0.021760 0.021403 -0.025319 -0.998774 0.003039 -0.049407 
-0.021372 0.021535 -0.025314 -0.991327 0.019306 -0.129990 
-0.022708 0.015403 -0.024955 -0.935135 -0.004752 0.354260 
-0.022950 0.015206 -0.024772 -0.680757 0.027074 0.732009 
-0.021630 0.015416 -0.025130 -0.999300 -0.014822 -0.034360 
-0.022970 0.019295 -0.024885 -0.745040 -0.040782 0.665771 
-0.022988 0.016446 -0.024738 -0.611614 -0.035784 0.790347 
-0.023085 0.016062 -0.024486 -0.657481 -0.020491 0.753192 
-0.022952 0.015724 -0.024752 -0.666484 -0.013189 0.745403 
-0.022678 0.017523 -0.025040 -0.950290 -0.031322 0.309787 
-0.022320 0.018607 -0.025174 -0.988586 -0.036602 0.146142 
-0.022040 0.020171 -0.025290 -0.998870 -0.023969 0.041041 
-0.022360 0.016521 -0.025074 -0.989119 -0.035108 0.142867 
-0.022754 0.021418 -0.025147 -0.913645 -0.050402 0.403377 
-0.021925 0.015998 -0.025132 -0.999220 -0.032601 0.022298 
-0.022196 0.015290 -0.025083 -0.996443 -0.016740 0.082588 
-0.021035 0.013411 -0.025257 -0.992272 0.103797 -0.067990 
-0.021620 0.013206 -0.025252 -0.995450 0.094940 0.008069 
-0.021426 0.017188 -0.025215 -0.997639 -0.051742 -0.045147 
-0.021892 0.017059 -0.025177 -0.998400 -0.043496 0.036145 
-0.022595 0.004931 -0.025060 -0.764130 -0.041997 0.643694 
-0.021010 0.010768 -0.025544 -0.995514 0.087892 -0.035035 
-0.021754 0.012196 -0.025345 -0.994395 0.093762 0.048857 
-0.021903 0.013707 -0.025175 -0.996404 0.075065 0.039305 
-0.022188 0.013058 -0.025189 -0.986985 0.079077 0.140025 
-0.022874 0.008693 -0.024794 -0.682046 -0.006533 0.731280 
-0.022432 0.010575 -0.025234 -0.908139 0.015761 0.418372 
-0.022799 -0.012190 -0.024708 -0.742133 -0.007167 0.670214 
-0.022445 0.000605 -0.025069 -0.848776 0.000344 0.528753 
-0.022177 0.001433 -0.025257 -0.890458 -0.015485 0.454802 
-0.022950 0.011525 -0.024796 -0.622227 -0.039935 0.781818 
-0.022700 0.011529 -0.025070 -0.844471 -0.008420 0.535535 
-0.022520 -0.060436 -0.008183 -0.023075 -0.027826 0.999346 
-0.022380 0.011635 -0.025236 -0.953157 0.035231 0.300417 
-0.022033 0.011662 -0.025339 -0.988819 0.061289 0.135947 
-0.023790 0.008739 -0.023452 -0.394034 0.021408 0.918847 
-0.022280 0.006660 -0.025354 -0.890520 -0.012475 0.454772 
-0.022186 0.007761 -0.025409 -0.926565 0.007197 0.376065 
-0.022462 0.007907 -0.025242 -0.819666 0.005315 0.572817 
-0.022327 -0.009913 -0.005475 -0.002013 -0.044325 0.999015 
-0.021985 0.003879 -0.025413 -0.917347 -0.025415 0.397276 
-0.021599 0.004256 -0.025584 -0.968964 -0.020110 0.246384 
-0.022610 -0.006331 -0.005202 0.005952 0.003738 0.999975 
-0.022861 -0.006067 -0.024640 -0.697047 -0.009598 0.716961 
-0.022568 -0.006179 -0.024991 -0.800344 -0.003131 0.599533 
-0.021582 -0.001996 -0.025510 -0.973693 -0.023346 0.226666 
-0.023539 -0.010016 -0.020863 0.058622 -0.068186 0.995949 
-0.021831 -0.001670 -0.025423 -0.943959 -0.017595 0.329595 
-0.022509 0.002319 -0.004793 -0.075037 0.027137 0.996811 
-0.022076 -0.006395 -0.025241 -0.933852 0.009201 0.357541 
-0.022302 -0.011398 -0.025240 -0.787980 0.024851 0.615199 
-0.022548 -0.011532 -0.024993 -0.733648 0.006021 0.679503 
-0.021950 -0.015091 -0.025618 -0.840532 -0.008169 0.541701 
-0.022213 -0.014114 -0.025417 -0.766639 -0.000182 0.642078 
-0.022445 -0.014430 -0.025131 -0.664022 -0.004477 0.747700 
-0.022481 -0.009955 -0.025084 -0.790581 -0.006243 0.612326 
-0.022425 -0.008222 -0.025082 -0.838140 0.019535 0.545105 
-0.022681 -0.007729 -0.024797 -0.756707 -0.003064 0.653747 
-0.020231 -0.018663 -0.025970 -0.999665 -0.025837 0.001425 
-0.022270 -0.002740 -0.025145 -0.909568 -0.015327 0.415272 
-0.022852 -0.014803 -0.024630 -0.682360 -0.009734 0.730952 
-0.022865 -0.008417 -0.024612 -0.755073 0.015766 0.655452 
-0.023334 -0.007931 -0.024044 -0.514620 0.027869 0.856965 
-0.022503 -0.009299 -0.025062 -0.819649 0.039814 0.571481 
-0.022583 -0.008575 -0.024935 -0.761405 0.024406 0.647817 
-0.022369 -0.007589 -0.025106 -0.862392 -0.005266 0.506213 
-0.022321 -0.006820 -0.025136 -0.915428 -0.003796 0.402464 
-0.023252 -0.012251 -0.024125 -0.485638 -0.033545 0.873516 
-0.023324 -0.014206 -0.023613 -0.333189 -0.038641 0.942068 
-0.023083 -0.016471 -0.024115 -0.446373 -0.005889 0.894827 
-0.023285 -0.007407 -0.024118 -0.532307 0.049871 0.845081 
-0.023486 -0.007846 -0.023657 -0.396595 0.043735 0.916951 
-0.023578 -0.007296 -0.023244 -0.332359 0.030049 0.942674 
-0.023215 -0.013458 -0.024085 -0.455207 -0.054724 0.888702 
-0.023045 -0.014826 -0.024342 -0.517660 -0.022715 0.855285 
-0.023178 -0.014532 -0.024030 -0.435110 -0.031005 0.899843 
-0.023238 -0.005680 -0.024154 -0.545016 -0.002442 0.838422 
-0.023354 -0.011999 -0.023869 -0.389371 -0.036587 0.920354 
-0.023364 0.001889 -0.024180 -0.684770 -0.014729 0.728611 
-0.023564 -0.008845 -0.023528 -0.357280 0.002342 0.933995 
-0.023721 -0.001975 -0.023082 -0.359172 -0.037390 0.932522 
-0.023563 -0.001798 -0.023549 -0.455194 -0.040032 0.889492 
-0.023579 0.009511 -0.019600 0.105395 0.055015 0.992907 
-0.023462 -0.001212 -0.023816 -0.552477 -0.045150 0.832304 
-0.023141 0.001224 -0.024375 -0.767450 -0.023717 0.640670 
-0.022979 -0.001866 -0.024409 -0.696597 -0.033198 0.716694 
-0.023542 -0.006522 -0.023362 -0.365134 -0.001324 0.930954 
-0.023388 -0.006904 -0.023826 -0.450846 0.026276 0.892215 
-0.023378 -0.006099 -0.023808 -0.451177 -0.007929 0.892399 
-0.023491 -0.010178 -0.023669 -0.361597 -0.032978 0.931751 
-0.023306 -0.010380 -0.024103 -0.511143 -0.023551 0.859173 
-0.023268 -0.001183 -0.024127 -0.670456 -0.038794 0.740934 
-0.022718 0.000475 -0.024848 -0.713149 -0.006123 0.700985 
-0.007860 -0.062482 -0.011062 0.198784 -0.922756 0.330162 
-0.023029 -0.000613 -0.024439 -0.723249 -0.025611 0.690112 
-0.023279 -0.000176 -0.024192 -0.688608 -0.038369 0.724118 
-0.023152 0.000396 -0.024354 -0.760920 -0.018956 0.648569 
-0.023023 0.000684 -0.024472 -0.793295 -0.017636 0.608581 
-0.022883 0.000211 -0.024584 -0.715545 -0.010504 0.698487 
-0.022817 0.002753 -0.024685 -0.762459 0.004226 0.647023 
-0.023126 0.002130 -0.024431 -0.786086 -0.008357 0.618061 
-0.006638 -0.062742 -0.011074 0.068307 -0.994980 0.073135 
-0.022610 -0.001543 -0.024977 -0.774343 0.014469 0.632601 
-0.022649 -0.000741 -0.024924 -0.739654 -0.000095 0.672988 
-0.022779 -0.001446 -0.024721 -0.624588 -0.018941 0.780725 
-0.023697 0.003347 -0.018491 -0.023781 -0.022574 0.999462 
-0.022895 0.000946 -0.024599 -0.700900 -0.024141 0.712851 
-0.022717 0.001106 -0.024855 -0.737966 0.001039 0.674837 
-0.022671 -0.004499 -0.024901 -0.734875 0.020770 0.677884 
-0.022472 -0.003883 -0.025037 -0.844047 0.005484 0.536241 
-0.023020 -0.004114 -0.024398 -0.704771 0.041507 0.708220 
-0.022607 -0.002943 -0.024958 -0.750718 -0.037124 0.659579 
-0.022673 -0.002196 -0.024906 -0.628163 -0.020402 0.777815 
-0.022762 -0.002555 -0.024661 -0.598511 -0.013900 0.800994 
-0.023025 -0.005642 -0.024462 -0.683584 0.004192 0.729859 
-0.023382 -0.005237 -0.023844 -0.455528 -0.007453 0.890190 
-0.023232 -0.009861 -0.024267 -0.614937 -0.015278 0.788428 
-0.023351 -0.011252 -0.023962 -0.434562 -0.026383 0.900255 
-0.022992 -0.007855 -0.024492 -0.761938 -0.012250 0.647534 
-0.023048 -0.009903 -0.024488 -0.750220 0.003219 0.661181 
-0.022300 -0.010692 -0.025225 -0.828336 0.016158 0.559999 
-0.021869 -0.010661 -0.025489 -0.926669 0.068365 0.369608 
-0.023421 -0.013607 -0.023287 -0.267138 -0.050701 0.962324 
-0.023498 -0.013055 -0.023058 -0.213811 -0.046542 0.975766 
-0.022941 -0.016780 -0.024413 -0.573562 -0.009934 0.819102 
-0.022349 -0.017528 -0.025220 -0.714523 -0.014581 0.699460 
-0.022254 -0.016654 -0.025345 -0.768709 -0.014446 0.639435 
-0.023079 -0.021732 -0.024049 -0.475825 -0.010085 0.879482 
-0.020253 -0.062873 -0.014693 0.008711 -0.907198 -0.420614 
-0.022620 -0.018169 -0.024765 -0.634006 -0.029613 0.772761 
-0.022542 -0.015986 -0.024957 -0.642726 -0.014187 0.765964 
-0.022600 -0.015157 -0.024915 -0.681815 -0.010489 0.731449 
-0.023158 -0.015527 -0.023990 -0.424564 -0.034596 0.904737 
-0.023293 -0.015180 -0.023615 -0.356321 -0.027602 0.933956 
-0.021036 -0.063179 -0.013767 0.009143 -0.983785 -0.179117 
-0.022448 -0.018632 -0.025094 -0.621942 -0.013494 0.782947 
-0.022801 -0.018075 -0.024587 -0.723832 -0.027104 0.689444 
-0.022876 -0.018485 -0.024470 -0.656293 -0.030983 0.753870 
-0.023051 -0.018582 -0.024189 -0.515810 -0.012631 0.856610 
-0.022862 -0.020218 -0.024468 -0.618962 0.006500 0.785394 
-0.023031 -0.017429 -0.024258 -0.512929 0.001453 0.858430 
-0.022936 -0.017922 -0.024426 -0.609923 -0.016203 0.792295 
-0.022475 -0.020730 -0.024976 -0.673110 0.006570 0.739513 
-0.023339 -0.019720 -0.014881 0.036299 0.046061 0.998279 
-0.022798 -0.022650 -0.024570 -0.647447 -0.035294 0.761293 
-0.022650 -0.037019 -0.024482 -0.557111 -0.034965 0.829702 
-0.003833 -0.062684 -0.012128 -0.099064 -0.991002 -0.090004 
-0.023276 -0.036893 -0.021674 -0.120081 -0.047564 0.991624 
-0.004131 -0.062720 -0.010872 0.043819 -0.997566 -0.054249 
0.014702 0.035293 -0.024453 -0.755124 -0.012775 -0.655457 
-0.023587 -0.030575 -0.022056 -0.243845 -0.015445 0.969691 
-0.022498 -0.037466 -0.024661 -0.635136 -0.050478 0.770749 
-0.022052 -0.039569 -0.025398 -0.742827 -0.018334 0.669232 
-0.022181 -0.049643 -0.025011 -0.400096 -0.014360 0.916361 
-0.022951 -0.025161 -0.024219 -0.594453 0.010669 0.804060 
-0.021920 -0.034534 -0.025318 -0.946130 0.054412 0.319182 
-0.021865 -0.033295 -0.025270 -0.938044 0.057815 0.341659 
-0.023214 -0.026026 -0.023539 -0.390936 -0.016944 0.920262 
-0.023144 -0.025075 -0.023820 -0.445448 -0.012965 0.895214 
-0.023384 -0.015374 -0.020086 0.032539 0.082753 0.996039 
-0.022915 -0.053275 -0.019926 0.026846 -0.064020 0.997587 
-0.022903 -0.054509 -0.020308 0.035883 -0.022728 0.999098 
-0.022577 -0.039186 -0.024446 -0.583427 -0.019572 0.811929 
-0.022644 -0.037769 -0.024434 -0.554087 -0.043685 0.831312 
-0.023307 -0.032561 -0.023078 -0.356291 -0.023071 0.934090 
-0.023700 -0.031514 -0.020622 -0.133837 -0.061902 0.989068 
-0.023010 -0.040402 -0.023247 -0.304086 -0.004340 0.952635 
-0.023046 -0.035364 -0.023648 -0.386712 -0.025133 0.921858 
-0.023026 -0.034652 -0.023752 -0.428067 -0.017710 0.903574 
-0.022863 -0.035377 -0.024117 -0.484656 -0.007391 0.874673 
-0.022854 -0.036839 -0.024047 -0.426796 -0.039593 0.903481 
-0.022923 -0.032764 -0.024033 -0.533621 0.004346 0.845713 
-0.022961 -0.033471 -0.023955 -0.487991 -0.009501 0.872797 
-0.023681 -0.028897 -0.021489 -0.220779 0.003695 0.975317 
-0.023479 -0.026661 -0.022554 -0.288796 -0.009177 0.957347 
-0.023050 -0.031779 -0.023769 -0.485637 -0.018550 0.873964 
-0.022769 -0.039837 -0.024033 -0.462808 -0.009397 0.886409 
-0.022934 -0.039372 -0.023583 -0.349537 -0.015789 0.936790 
-0.023206 -0.023427 -0.023688 -0.435992 -0.009332 0.899902 
-0.022908 -0.027854 -0.024245 -0.526000 -0.033422 0.849828 
-0.002315 -0.061891 -0.007348 0.304345 -0.944406 -0.124387 
-0.023158 -0.029244 -0.023644 -0.447773 -0.001862 0.894145 
-0.023750 -0.023176 -0.021150 -0.174841 -0.005342 0.984582 
-0.023156 -0.023870 -0.023827 -0.454616 -0.018756 0.890490 
-0.023113 -0.019521 -0.024031 -0.476697 -0.010961 0.878999 
-0.021605 -0.022428 -0.025690 -0.952916 -0.036570 0.301022 
-0.023459 -0.011646 -0.023574 -0.311989 -0.035185 0.949434 
-0.023307 -0.025034 -0.023349 -0.371159 -0.022951 0.928286 
